ply
format ascii 1.0
comment VCGLIB generated
element vertex 734
property float x
property float y
property float z
property float nx
property float ny
property float nz
property uchar red
property uchar green
property uchar blue
property uchar alpha
element face 0
property list uchar int vertex_indices
end_header
-155.3 -345.027 899 0.521569 0.545098 0.682353 255 255 255 255 
-153.612 -345.027 899 0.513726 0.537255 0.67451 255 255 255 255 
-151.924 -345.027 899 0.509804 0.529412 0.662745 255 255 255 255 
-150.236 -345.027 899 0.501961 0.517647 0.65098 255 255 255 255 
-149.043 -346.178 902 0.498039 0.509804 0.643137 255 255 255 255 
-146.86 -345.027 899 0.486275 0.505882 0.639216 255 255 255 255 
-145.172 -345.027 899 0.478431 0.517647 0.647059 255 255 255 255 
-143.484 -345.027 899 0.486275 0.509804 0.654902 255 255 255 255 
-141.796 -345.027 899 0.498039 0.509804 0.65098 255 255 255 255 
-140.108 -345.027 899 0.494118 0.501961 0.65098 255 255 255 255 
-138.42 -345.027 899 0.490196 0.498039 0.643137 255 255 255 255 
-136.731 -345.027 899 0.490196 0.498039 0.643137 255 255 255 255 
-135.043 -345.027 899 0.501961 0.505882 0.639216 255 255 255 255 
-133.355 -345.027 899 0.509804 0.513726 0.65098 255 255 255 255 
-132.107 -346.178 902 0.498039 0.529412 0.662745 255 255 255 255 
-130.413 -346.178 902 0.490196 0.54902 0.658824 255 255 255 255 
-129.005 -346.946 904 0.498039 0.533333 0.654902 255 255 255 255 
-127.307 -346.946 904 0.509804 0.54902 0.67451 255 255 255 255 
-126.027 -348.097 907 0.509804 0.517647 0.694118 255 255 255 255 
-124.324 -348.097 907 0.509804 0.501961 0.686275 255 255 255 255 
-122.621 -348.097 907 0.517647 0.517647 0.682353 255 255 255 255 
-121.184 -348.865 909 0.529412 0.529412 0.67451 255 255 255 255 
-119.215 -348.097 907 0.505882 0.517647 0.666667 255 255 255 255 
-117.511 -348.097 907 0.486275 0.505882 0.647059 255 255 255 255 
-115.808 -348.097 907 0.486275 0.505882 0.647059 255 255 255 255 
-114.357 -348.865 909 0.478431 0.505882 0.631373 255 255 255 255 
-112.65 -348.865 909 0.47451 0.509804 0.639216 255 255 255 255 
-110.943 -348.865 909 0.478431 0.509804 0.65098 255 255 255 255 
-109.236 -348.865 909 0.482353 0.509804 0.65098 255 255 255 255 
-107.53 -348.865 909 0.490196 0.505882 0.65098 255 255 255 255 
-105.823 -348.865 909 0.498039 0.509804 0.654902 255 255 255 255 
-104.116 -348.865 909 0.482353 0.505882 0.658824 255 255 255 255 
-102.409 -348.865 909 0.470588 0.498039 0.643137 255 255 255 255 
-100.702 -348.865 909 0.482353 0.498039 0.631373 255 255 255 255 
-98.9955 -348.865 909 0.494118 0.501961 0.654902 255 255 255 255 
-97.0747 -348.097 907 0.501961 0.505882 0.682353 255 255 255 255 
-95.3716 -348.097 907 0.513726 0.521569 0.686275 255 255 255 255 
-93.3587 -346.946 904 0.513726 0.521569 0.686275 255 255 255 255 
-91.4585 -346.178 902 0.54902 0.54902 0.694118 255 255 255 255 
-89.7648 -346.178 902 0.584314 0.627451 0.745098 255 255 255 255 
-88.0712 -346.178 902 0.592157 0.647059 0.8 255 255 255 255 
-86.3775 -346.178 902 0.6 0.698039 0.784314 255 255 255 255 
-84.6838 -346.178 902 0.466667 0.52549 0.772549 255 255 255 255 
-82.9901 -346.178 902 0.333333 0.0313726 0.647059 255 255 255 255 
-81.026 -345.027 899 0.203922 0.101961 0.521569 255 255 255 255 
-79.338 -345.027 899 0.0705882 0.00392157 0.392157 255 255 255 255 
-77.65 -345.027 899 0.117647 0.0941176 0.262745 255 255 255 255 
-75.7929 -344.259 897 0.168627 0.184314 0.282353 255 255 255 255 
-73.9434 -343.492 895 0.168627 0.172549 0.305882 255 255 255 255 
-72.0206 -342.34 892 0.168627 0.172549 0.305882 255 255 255 255 
-70.3458 -342.34 892 0.172549 0.180392 0.298039 255 255 255 255 
-68.5169 -341.573 890 0.152941 0.176471 0.290196 255 255 255 255 
-66.6955 -340.805 888 0.133333 0.172549 0.286275 255 255 255 255 
-65.0281 -340.805 888 0.160784 0.176471 0.282353 255 255 255 255 
-61.4342 -330.443 861 0.203922 0.219608 0.313726 255 255 255 255 
-59.8176 -330.443 861 0.219608 0.235294 0.341176 255 255 255 255 
-58.2009 -330.443 861 0.227451 0.231373 0.368627 255 255 255 255 
-56.7156 -331.211 863 0.239216 0.227451 0.368627 255 255 255 255 
-55.0952 -331.211 863 0.231373 0.219608 0.372549 255 255 255 255 
-53.6606 -332.362 866 0.227451 0.219608 0.360784 255 255 255 255 
-51.4938 -328.908 857 0.215686 0.203922 0.34902 255 255 255 255 
-49.8846 -328.908 857 0.203922 0.192157 0.341176 255 255 255 255 
-50.416 -343.492 895 0.215686 0.203922 0.34902 255 255 255 255 
-48.7354 -343.492 895 0.211765 0.215686 0.360784 255 255 255 255 
-46.8972 -342.34 892 0.215686 0.211765 0.352941 255 255 255 255 
-45.2223 -342.34 892 0.219608 0.211765 0.34902 255 255 255 255 
-43.4497 -341.573 890 0.219608 0.211765 0.345098 255 255 255 255 
-41.6847 -340.805 888 0.219608 0.231373 0.34902 255 255 255 255 
-40.0173 -340.805 888 0.231373 0.243137 0.352941 255 255 255 255 
-38.3499 -340.805 888 0.243137 0.239216 0.360784 255 255 255 255 
-36.6826 -340.805 888 0.243137 0.239216 0.372549 255 255 255 255 
-35.0152 -340.805 888 0.247059 0.247059 0.380392 255 255 255 255 
-33.3478 -340.805 888 0.258824 0.258824 0.392157 255 255 255 255 
-31.7517 -341.573 890 0.270588 0.266667 0.407843 255 255 255 255 
-30.0806 -341.573 890 0.270588 0.266667 0.407843 255 255 255 255 
-28.4733 -342.34 892 0.247059 0.27451 0.427451 255 255 255 255 
-26.7984 -342.34 892 0.223529 0.27451 0.415686 255 255 255 255 
-25.1235 -342.34 892 0.235294 0.282353 0.403922 255 255 255 255 
-23.4486 -342.34 892 0.25098 0.290196 0.411765 255 255 255 255 
-21.7737 -342.34 892 0.258824 0.298039 0.423529 255 255 255 255 
-20.0988 -342.34 892 0.266667 0.286275 0.431373 255 255 255 255 
-18.4239 -342.34 892 0.27451 0.282353 0.443137 255 255 255 255 
-16.749 -342.34 892 0.286275 0.282353 0.447059 255 255 255 255 
-15.0403 -341.573 890 0.290196 0.282353 0.454902 255 255 255 255 
-13.3691 -341.573 890 0.298039 0.298039 0.45098 255 255 255 255 
-11.6717 -340.805 888 0.305882 0.305882 0.45098 255 255 255 255 
-10.0043 -340.805 888 0.317647 0.313726 0.470588 255 255 255 255 
-8.31816 -340.038 886 0.317647 0.313726 0.470588 255 255 255 255 
-6.65452 -340.038 886 0.317647 0.305882 0.486275 255 255 255 255 
-4.97399 -338.886 883 0.321569 0.313726 0.498039 255 255 255 255 
-3.3085 -338.119 881 0.298039 0.313726 0.505882 255 255 255 255 
-1.65425 -338.119 881 0.278431 0.329412 0.498039 255 255 255 255 
0 -338.119 881 0.301961 0.337255 0.490196 255 255 255 255 
1.65046 -337.351 879 0.32549 0.333333 0.509804 255 255 255 255 
3.29348 -336.584 877 0.376471 0.32549 0.52549 255 255 255 255 
4.94019 -336.584 877 0.427451 0.380392 0.505882 255 255 255 255 
6.60198 -337.351 879 0.466667 0.411765 0.486275 255 255 255 255 
8.23367 -336.584 877 0.509804 0.4 0.435294 255 255 255 255 
9.88038 -336.584 877 0.521569 0.384314 0.384314 255 255 255 255 
11.5271 -336.584 877 0.521569 0.384314 0.384314 255 255 255 255 
13.1739 -336.584 877 0.533333 0.380392 0.360784 255 255 255 255 
18.114 -336.584 877 0.521569 0.337255 0.270588 255 255 255 255 
19.7608 -336.584 877 0.521569 0.415686 0.407843 255 255 255 255 
21.4075 -336.584 877 0.517647 0.439216 0.54902 255 255 255 255 
23.8429 -348.097 907 0.513726 0.564706 0.611765 255 255 255 255 
25.546 -348.097 907 0.521569 0.588235 0.67451 255 255 255 255 
27.249 -348.097 907 0.529412 0.568627 0.67451 255 255 255 255 
28.9521 -348.097 907 0.533333 0.560784 0.67451 255 255 255 255 
30.6551 -348.097 907 0.541176 0.545098 0.67451 255 255 255 255 
32.2512 -346.946 904 0.537255 0.537255 0.67451 255 255 255 255 
33.9486 -346.946 904 0.537255 0.537255 0.67451 255 255 255 255 
35.4489 -345.027 899 0.533333 0.545098 0.698039 255 255 255 255 
36.9717 -343.492 895 0.552941 0.545098 0.721569 255 255 255 255 
38.3499 -340.805 888 0.572549 0.580392 0.705882 255 255 255 255 
39.9272 -340.038 886 0.607843 0.584314 0.690196 255 255 255 255 
41.5908 -340.038 886 0.647059 0.596078 0.701961 255 255 255 255 
43.2544 -340.038 886 0.560784 0.631373 0.717647 255 255 255 255 
44.9181 -340.038 886 0.478431 0.47451 0.666667 255 255 255 255 
46.424 -338.886 883 0.454902 0.454902 0.615686 255 255 255 255 
48.082 -338.886 883 0.435294 0.439216 0.6 255 255 255 255 
49.74 -338.886 883 0.352941 0.52549 0.584314 255 255 255 255 
51.398 -338.886 883 0.270588 0.360784 0.533333 255 255 255 255 
53.056 -338.886 883 0.270588 0.360784 0.533333 255 255 255 255 
54.714 -338.886 883 0.239216 0.341176 0.482353 255 255 255 255 
56.372 -338.886 883 0.207843 0.227451 0.411765 255 255 255 255 
58.03 -338.886 883 0.2 0.176471 0.341176 255 255 255 255 
59.5528 -338.119 881 0.196078 0.152941 0.333333 255 255 255 255 
61.0681 -337.351 879 0.196078 0.2 0.329412 255 255 255 255 
62.7186 -337.351 879 0.2 0.192157 0.313726 255 255 255 255 
64.2226 -336.584 877 0.207843 0.192157 0.298039 255 255 255 255 
65.8693 -336.584 877 0.219608 0.192157 0.298039 255 255 255 255 
67.5161 -336.584 877 0.215686 0.203922 0.301961 255 255 255 255 
68.9262 -335.432 874 0.215686 0.2 0.313726 255 255 255 255 
70.5673 -335.432 874 0.321569 0.196078 0.329412 255 255 255 255 
72.2085 -335.432 874 0.431373 0.333333 0.407843 255 255 255 255 
73.8495 -335.432 874 0.431373 0.333333 0.407843 255 255 255 255 
75.4906 -335.432 874 0.447059 0.384314 0.482353 255 255 255 255 
80.2205 -348.865 909 0.462745 0.45098 0.533333 255 255 255 255 
81.9273 -348.865 909 0.447059 0.505882 0.584314 255 255 255 255 
83.1742 -346.946 904 0.431373 0.415686 0.521569 255 255 255 255 
84.6838 -346.178 902 0.364706 0.388235 0.458824 255 255 255 255 
86.3774 -346.178 902 0.298039 0.313726 0.454902 255 255 255 255 
88.0712 -346.178 902 0.301961 0.290196 0.454902 255 255 255 255 
89.7648 -346.178 902 0.309804 0.298039 0.443137 255 255 255 255 
91.6613 -346.946 904 0.317647 0.294118 0.431373 255 255 255 255 
93.6685 -348.097 907 0.32549 0.337255 0.447059 255 255 255 255 
95.3716 -348.097 907 0.345098 0.360784 0.466667 255 255 255 255 
97.5028 -349.632 911 0.364706 0.364706 0.482353 255 255 255 255 
99.7579 -351.551 916 0.364706 0.364706 0.482353 255 255 255 255 
102.032 -353.47 921 0.380392 0.376471 0.498039 255 255 255 255 
103.986 -354.238 923 0.396078 0.380392 0.501961 255 255 255 255 
106.063 -355.389 926 0.396078 0.380392 0.501961 255 255 255 255 
108.035 -356.157 928 0.407843 0.4 0.505882 255 255 255 255 
109.541 -355.389 926 0.419608 0.388235 0.509804 255 255 255 255 
111.279 -355.389 926 0.427451 0.396078 0.513726 255 255 255 255 
113.262 -356.157 928 0.439216 0.396078 0.521569 255 255 255 255 
114.757 -355.389 926 0.462745 0.388235 0.529412 255 255 255 255 
116.496 -355.389 926 0.490196 0.47451 0.584314 255 255 255 255 
117.851 -354.238 923 0.545098 0.533333 0.670588 255 255 255 255 
118.418 -350.784 914 0.564706 0.545098 0.698039 255 255 255 255 
120.135 -350.784 914 0.588235 0.568627 0.701961 255 255 255 255 
120.518 -346.946 904 0.588235 0.568627 0.701961 255 255 255 255 
122.215 -346.946 904 0.564706 0.556863 0.701961 255 255 255 255 
123.638 -346.178 902 0.541176 0.54902 0.698039 255 255 255 255 
125.332 -346.178 902 0.529412 0.54902 0.694118 255 255 255 255 
127.307 -346.946 904 0.517647 0.54902 0.698039 255 255 255 255 
129.005 -346.946 904 0.568627 0.552941 0.698039 255 255 255 255 
131.136 -348.097 907 0.619608 0.572549 0.709804 255 255 255 255 
133.132 -348.865 909 0.603922 0.584314 0.72549 255 255 255 255 
135.135 -349.632 911 0.592157 0.568627 0.717647 255 255 255 255 
137.297 -350.784 914 0.580392 0.568627 0.709804 255 255 255 255 
139.013 -350.784 914 0.568627 0.568627 0.721569 255 255 255 255 
141.037 -351.551 916 0.545098 0.552941 0.729412 255 255 255 255 
143.536 -353.47 921 0.533333 0.537255 0.713726 255 255 255 255 
145.266 -353.47 921 0.533333 0.537255 0.713726 255 255 255 255 
146.995 -353.47 921 0.533333 0.533333 0.701961 255 255 255 255 
148.724 -353.47 921 0.529412 0.537255 0.694118 255 255 255 255 
150.454 -353.47 921 0.537255 0.537255 0.690196 255 255 255 255 
152.183 -353.47 921 0.54902 0.541176 0.686275 255 255 255 255 
153.912 -353.47 921 0.537255 0.533333 0.682353 255 255 255 255 
155.642 -353.47 921 0.529412 0.529412 0.678431 255 255 255 255 
157.371 -353.47 921 0.533333 0.52549 0.67451 255 255 255 255 
158.755 -352.703 919 0.541176 0.52549 0.670588 255 255 255 255 
160.48 -352.703 919 0.541176 0.517647 0.666667 255 255 255 255 
162.206 -352.703 919 0.541176 0.513726 0.678431 255 255 255 255 
163.397 -351.551 916 0.545098 0.521569 0.694118 255 255 255 255 
165.116 -351.551 916 0.552941 0.541176 0.698039 255 255 255 255 
166.836 -351.551 916 0.552941 0.541176 0.698039 255 255 255 255 
168.188 -350.784 914 0.560784 0.556863 0.705882 255 255 255 255 
169.905 -350.784 914 0.572549 0.572549 0.701961 255 255 255 255 
171.621 -350.784 914 0.564706 0.568627 0.698039 255 255 255 255 
173.337 -350.784 914 0.552941 0.552941 0.666667 255 255 255 255 
175.436 -351.551 916 0.509804 0.533333 0.635294 255 255 255 255 
177.736 -352.703 919 0.466667 0.431373 0.513726 255 255 255 255 
179.462 -352.703 919 0.235294 0.329412 0.396078 255 255 255 255 
181.188 -352.703 919 0.00784314 0.00392157 0.2 255 255 255 255 
183.311 -353.47 921 0.0392157 0.0235294 0.00784314 255 255 255 255 
185.442 -354.238 923 0.0745098 0.0823529 0.0862745 255 255 255 255 
188.798 -357.308 931 0.0745098 0.0823529 0.0862745 255 255 255 255 
190.955 -358.076 933 0.0705882 0.0745098 0.164706 255 255 255 255 
193.327 -359.227 936 0.0705882 0.0784314 0.2 255 255 255 255 
195.71 -360.379 939 0.0705882 0.0784314 0.2 255 255 255 255 
197.893 -361.146 941 0.0901961 0.0784314 0.235294 255 255 255 255 
199.66 -361.146 941 0.109804 0.0862745 0.2 255 255 255 255 
202.069 -362.298 944 0.0941176 0.0784314 0.168627 255 255 255 255 
203.842 -362.298 944 0.0745098 0.0666667 0.184314 255 255 255 255 
206.05 -363.065 946 0.0862745 0.0823529 0.203922 255 255 255 255 
207.826 -363.065 946 0.0980392 0.0941176 0.196078 255 255 255 255 
210.267 -364.216 949 0.105882 0.105882 0.192157 255 255 255 255 
212.049 -364.216 949 0.113725 0.117647 0.2 255 255 255 255 
-202.513 -352.503 914 0.533333 0.541176 0.682353 255 255 255 255 
-200.137 -351.346 911 0.556863 0.521569 0.682353 255 255 255 255 
-197.991 -350.575 909 0.580392 0.537255 0.682353 255 255 255 255 
-196.284 -350.575 909 0.560784 0.545098 0.682353 255 255 255 255 
-194.149 -349.804 907 0.541176 0.529412 0.67451 255 255 255 255 
-191.81 -348.647 904 0.52549 0.529412 0.666667 255 255 255 255 
-189.692 -347.875 902 0.509804 0.521569 0.654902 255 255 255 255 
-187.998 -347.875 902 0.478431 0.513726 0.647059 255 255 255 255 
-186.304 -347.875 902 0.45098 0.498039 0.631373 255 255 255 255 
-184.611 -347.875 902 0.47451 0.490196 0.615686 255 255 255 255 
-182.309 -346.718 899 0.501961 0.494118 0.627451 255 255 255 255 
-180.621 -346.718 899 0.501961 0.494118 0.627451 255 255 255 255 
-178.933 -346.718 899 0.505882 0.498039 0.639216 255 255 255 255 
-177.244 -346.718 899 0.513726 0.501961 0.635294 255 255 255 255 
-175.556 -346.718 899 0.517647 0.509804 0.635294 255 255 255 255 
-173.868 -346.718 899 0.521569 0.513726 0.643137 255 255 255 255 
-172.18 -346.718 899 0.513726 0.52549 0.654902 255 255 255 255 
-170.492 -346.718 899 0.505882 0.517647 0.658824 255 255 255 255 
-168.804 -346.718 899 0.513726 0.517647 0.666667 255 255 255 255 
-166.744 -345.947 897 0.521569 0.521569 0.670588 255 255 255 255 
-165.06 -345.947 897 0.52549 0.52549 0.678431 255 255 255 255 
-163.376 -345.947 897 0.533333 0.545098 0.682353 255 255 255 255 
-161.692 -345.947 897 0.533333 0.556863 0.690196 255 255 255 255 
-160.007 -345.947 897 0.537255 0.552941 0.690196 255 255 255 255 
-158.323 -345.947 897 0.537255 0.552941 0.690196 255 255 255 255 
-156.988 -346.718 899 0.529412 0.54902 0.690196 255 255 255 255 
-155.3 -346.718 899 0.521569 0.545098 0.686275 255 255 255 255 
-153.612 -346.718 899 0.513726 0.545098 0.678431 255 255 255 255 
-151.924 -346.718 899 0.509804 0.533333 0.666667 255 255 255 255 
-150.236 -346.718 899 0.498039 0.529412 0.654902 255 255 255 255 
-148.548 -346.718 899 0.490196 0.521569 0.65098 255 255 255 255 
-146.86 -346.718 899 0.478431 0.521569 0.65098 255 255 255 255 
-145.172 -346.718 899 0.470588 0.517647 0.65098 255 255 255 255 
-143.484 -346.718 899 0.482353 0.517647 0.654902 255 255 255 255 
-141.796 -346.718 899 0.498039 0.509804 0.65098 255 255 255 255 
-140.108 -346.718 899 0.498039 0.505882 0.647059 255 255 255 255 
-138.42 -346.718 899 0.498039 0.501961 0.647059 255 255 255 255 
-136.731 -346.718 899 0.498039 0.501961 0.647059 255 255 255 255 
-134.743 -345.947 897 0.509804 0.505882 0.647059 255 255 255 255 
-133.059 -345.947 897 0.521569 0.513726 0.654902 255 255 255 255 
-131.667 -346.718 899 0.498039 0.529412 0.658824 255 255 255 255 
-129.979 -346.718 899 0.478431 0.521569 0.65098 255 255 255 255 
-128.291 -346.718 899 0.490196 0.501961 0.643137 255 255 255 255 
-127.026 -347.875 902 0.501961 0.509804 0.662745 255 255 255 255 
-125.332 -347.875 902 0.501961 0.490196 0.682353 255 255 255 255 
-123.638 -347.875 902 0.505882 0.505882 0.678431 255 255 255 255 
-122.215 -348.647 904 0.52549 0.517647 0.67451 255 255 255 255 
-120.518 -348.647 904 0.54902 0.521569 0.678431 255 255 255 255 
-118.82 -348.647 904 0.521569 0.517647 0.686275 255 255 255 255 
-117.123 -348.647 904 0.494118 0.509804 0.662745 255 255 255 255 
-115.808 -349.804 907 0.494118 0.509804 0.662745 255 255 255 255 
-114.105 -349.804 907 0.478431 0.501961 0.643137 255 255 255 255 
-112.402 -349.804 907 0.466667 0.501961 0.647059 255 255 255 255 
-110.943 -350.575 909 0.47451 0.501961 0.65098 255 255 255 255 
-109.236 -350.575 909 0.486275 0.498039 0.647059 255 255 255 255 
-107.53 -350.575 909 0.486275 0.498039 0.647059 255 255 255 255 
-105.823 -350.575 909 0.490196 0.501961 0.65098 255 255 255 255 
-104.116 -350.575 909 0.490196 0.509804 0.654902 255 255 255 255 
-102.409 -350.575 909 0.490196 0.498039 0.65098 255 255 255 255 
-100.481 -349.804 907 0.490196 0.490196 0.643137 255 255 255 255 
-98.7777 -349.804 907 0.490196 0.486275 0.654902 255 255 255 255 
-97.0747 -349.804 907 0.498039 0.478431 0.666667 255 255 255 255 
-95.0562 -348.647 904 0.498039 0.478431 0.666667 255 255 255 255 
-93.1522 -347.875 902 0.505882 0.52549 0.694118 255 255 255 255 
-91.4585 -347.875 902 0.560784 0.545098 0.721569 255 255 255 255 
-89.7648 -347.875 902 0.619608 0.615686 0.752941 255 255 255 255 
-88.0712 -347.875 902 0.607843 0.647059 0.784314 255 255 255 255 
-86.3775 -347.875 902 0.596078 0.631373 0.741176 255 255 255 255 
-84.6838 -347.875 902 0.392157 0.639216 0.701961 255 255 255 255 
-82.9901 -347.875 902 0.192157 0.172549 0.541176 255 255 255 255 
-81.026 -346.718 899 0.133333 0.0196078 0.384314 255 255 255 255 
-79.338 -346.718 899 0.0745098 0.0862745 0.341176 255 255 255 255 
-77.4772 -345.947 897 0.12549 0.133333 0.298039 255 255 255 255 
-75.7929 -345.947 897 0.176471 0.164706 0.301961 255 255 255 255 
-73.6955 -344.019 892 0.188235 0.164706 0.309804 255 255 255 255 
-72.0206 -344.019 892 0.188235 0.164706 0.309804 255 255 255 255 
-70.3458 -344.019 892 0.2 0.176471 0.301961 255 255 255 255 
-68.3629 -342.476 888 0.188235 0.184314 0.294118 255 255 255 255 
-66.6955 -342.476 888 0.176471 0.176471 0.294118 255 255 255 255 
-65.0281 -342.476 888 0.192157 0.176471 0.294118 255 255 255 255 
-61.5769 -332.834 863 0.219608 0.219608 0.32549 255 255 255 255 
-59.9565 -332.834 863 0.235294 0.235294 0.34902 255 255 255 255 
-58.3361 -332.834 863 0.243137 0.243137 0.368627 255 255 255 255 
-56.7156 -332.834 863 0.25098 0.247059 0.376471 255 255 255 255 
-55.2867 -333.991 866 0.247059 0.243137 0.388235 255 255 255 255 
-53.6606 -333.991 866 0.243137 0.239216 0.376471 255 255 255 255 
-52.0345 -333.991 866 0.227451 0.227451 0.368627 255 255 255 255 
-51.8055 -343.247 890 0.227451 0.227451 0.368627 255 255 255 255 
-50.247 -344.019 892 0.227451 0.227451 0.368627 255 255 255 255 
-48.5721 -344.019 892 0.211765 0.215686 0.360784 255 255 255 255 
-46.8972 -344.019 892 0.215686 0.211765 0.352941 255 255 255 255 
-45.1209 -343.247 890 0.219608 0.211765 0.34902 255 255 255 255 
-43.4497 -343.247 890 0.219608 0.211765 0.345098 255 255 255 255 
-41.6847 -342.476 888 0.219608 0.231373 0.34902 255 255 255 255 
-40.0173 -342.476 888 0.231373 0.243137 0.352941 255 255 255 255 
-38.2635 -341.705 886 0.243137 0.239216 0.360784 255 255 255 255 
-36.5999 -341.705 886 0.243137 0.239216 0.372549 255 255 255 255 
-34.9363 -341.705 886 0.247059 0.247059 0.380392 255 255 255 255 
-33.2727 -341.705 886 0.258824 0.258824 0.392157 255 255 255 255 
-31.6804 -342.476 888 0.286275 0.262745 0.396078 255 255 255 255 
-30.0806 -343.247 890 0.286275 0.262745 0.396078 255 255 255 255 
-28.4095 -343.247 890 0.266667 0.262745 0.411765 255 255 255 255 
-26.7383 -343.247 890 0.25098 0.266667 0.403922 255 255 255 255 
-25.0672 -343.247 890 0.258824 0.270588 0.396078 255 255 255 255 
-23.396 -343.247 890 0.266667 0.282353 0.403922 255 255 255 255 
-21.7249 -343.247 890 0.270588 0.286275 0.415686 255 255 255 255 
-20.0537 -343.247 890 0.27451 0.282353 0.423529 255 255 255 255 
-18.3826 -343.247 890 0.282353 0.286275 0.431373 255 255 255 255 
-16.7114 -343.247 890 0.294118 0.286275 0.439216 255 255 255 255 
-15.0403 -343.247 890 0.298039 0.294118 0.447059 255 255 255 255 
-13.3691 -343.247 890 0.301961 0.301961 0.447059 255 255 255 255 
-11.698 -343.247 890 0.321569 0.309804 0.447059 255 255 255 255 
-10.0043 -342.476 888 0.341176 0.317647 0.458824 255 255 255 255 
-8.33694 -342.476 888 0.341176 0.317647 0.458824 255 255 255 255 
-6.65452 -341.705 886 0.333333 0.317647 0.47451 255 255 255 255 
-4.97399 -340.548 883 0.32549 0.321569 0.482353 255 255 255 255 
-3.31601 -340.548 883 0.309804 0.317647 0.490196 255 255 255 255 
-1.65801 -340.548 883 0.294118 0.329412 0.478431 255 255 255 255 
0 -340.548 883 0.309804 0.333333 0.466667 255 255 255 255 
1.65797 -340.548 883 0.32549 0.337255 0.498039 255 255 255 255 
3.3085 -339.776 881 0.364706 0.352941 0.529412 255 255 255 255 
4.96272 -339.776 881 0.403922 0.384314 0.537255 255 255 255 255 
6.617 -339.776 881 0.439216 0.4 0.545098 255 255 255 255 
8.25245 -339.005 879 0.478431 0.454902 0.501961 255 255 255 255 
9.90291 -339.005 879 0.505882 0.427451 0.458824 255 255 255 255 
11.5271 -338.233 877 0.505882 0.427451 0.458824 255 255 255 255 
13.1739 -338.233 877 0.533333 0.407843 0.407843 255 255 255 255 
14.8206 -338.233 877 0.537255 0.372549 0.360784 255 255 255 255 
16.4673 -338.233 877 0.541176 0.329412 0.313726 255 255 255 255 
18.114 -338.233 877 0.541176 0.380392 0.266667 255 255 255 255 
19.7608 -338.233 877 0.545098 0.529412 0.443137 255 255 255 255 
21.4075 -338.233 877 0.556863 0.54902 0.623529 255 255 255 255 
23.0543 -338.233 877 0.568627 0.631373 0.658824 255 255 255 255 
24.7573 -339.005 879 0.552941 0.588235 0.698039 255 255 255 255 
27.0988 -347.875 902 0.541176 0.560784 0.690196 255 255 255 255 
28.7925 -347.875 902 0.545098 0.552941 0.686275 255 255 255 255 
30.5537 -348.647 904 0.552941 0.552941 0.682353 255 255 255 255 
32.1799 -347.875 902 0.54902 0.560784 0.682353 255 255 255 255 
33.7609 -346.718 899 0.54902 0.560784 0.682353 255 255 255 255 
35.2911 -345.176 895 0.54902 0.572549 0.713726 255 255 255 255 
36.5999 -341.705 886 0.537255 0.584314 0.74902 255 255 255 255 
38.134 -340.548 883 0.521569 0.627451 0.729412 255 255 255 255 
39.792 -340.548 883 0.521569 0.568627 0.713726 255 255 255 255 
41.45 -340.548 883 0.521569 0.6 0.72549 255 255 255 255 
43.108 -340.548 883 0.454902 0.509804 0.741176 255 255 255 255 
44.766 -340.548 883 0.388235 0.360784 0.686275 255 255 255 255 
46.424 -340.548 883 0.345098 0.356863 0.635294 255 255 255 255 
48.082 -340.548 883 0.301961 0.333333 0.588235 255 255 255 255 
49.74 -340.548 883 0.278431 0.27451 0.545098 255 255 255 255 
51.398 -340.548 883 0.258824 0.054902 0.447059 255 255 255 255 
53.056 -340.548 883 0.258824 0.054902 0.447059 255 255 255 255 
54.714 -340.548 883 0.239216 0.188235 0.34902 255 255 255 255 
56.372 -340.548 883 0.219608 0.180392 0.356863 255 255 255 255 
57.8986 -339.776 881 0.2 0.2 0.364706 255 255 255 255 
59.4176 -339.005 879 0.180392 0.231373 0.345098 255 255 255 255 
61.0681 -339.005 879 0.196078 0.203922 0.329412 255 255 255 255 
62.5759 -338.233 877 0.211765 0.184314 0.317647 255 255 255 255 
64.2226 -338.233 877 0.227451 0.180392 0.305882 255 255 255 255 
65.644 -337.076 874 0.247059 0.192157 0.305882 255 255 255 255 
67.2851 -337.076 874 0.254902 0.2 0.305882 255 255 255 255 
68.9262 -337.076 874 0.262745 0.211765 0.305882 255 255 255 255 
70.5673 -337.076 874 0.360784 0.294118 0.309804 255 255 255 255 
72.2085 -337.076 874 0.458824 0.478431 0.443137 255 255 255 255 
74.103 -338.233 877 0.458824 0.478431 0.443137 255 255 255 255 
75.7497 -338.233 877 0.470588 0.47451 0.576471 255 255 255 255 
80.2205 -350.575 909 0.478431 0.52549 0.615686 255 255 255 255 
81.7471 -349.804 907 0.447059 0.505882 0.658824 255 255 255 255 
82.7141 -346.718 899 0.419608 0.392157 0.556863 255 255 255 255 
84.4021 -346.718 899 0.356863 0.356863 0.458824 255 255 255 255 
86.0901 -346.718 899 0.298039 0.290196 0.462745 255 255 255 255 
87.7782 -346.718 899 0.305882 0.298039 0.470588 255 255 255 255 
89.7648 -347.875 902 0.313726 0.305882 0.443137 255 255 255 255 
91.4585 -347.875 902 0.321569 0.317647 0.419608 255 255 255 255 
93.3587 -348.647 904 0.32549 0.356863 0.435294 255 255 255 255 
95.3716 -349.804 907 0.341176 0.364706 0.45098 255 255 255 255 
97.2887 -350.575 909 0.356863 0.384314 0.466667 255 255 255 255 
99.5401 -352.503 914 0.356863 0.384314 0.466667 255 255 255 255 
101.81 -354.432 919 0.372549 0.380392 0.486275 255 255 255 255 
103.761 -355.203 921 0.392157 0.384314 0.494118 255 255 255 255 
105.72 -355.974 923 0.403922 0.372549 0.505882 255 255 255 255 
107.453 -355.974 923 0.419608 0.368627 0.509804 255 255 255 255 
109.186 -355.974 923 0.427451 0.4 0.513726 255 255 255 255 
110.919 -355.974 923 0.435294 0.419608 0.517647 255 255 255 255 
112.652 -355.974 923 0.47451 0.439216 0.521569 255 255 255 255 
114.385 -355.974 923 0.513726 0.501961 0.588235 255 255 255 255 
115.238 -353.275 916 0.529412 0.529412 0.658824 255 255 255 255 
116.319 -351.346 911 0.54902 0.560784 0.666667 255 255 255 255 
117.771 -350.575 909 0.556863 0.560784 0.678431 255 255 255 255 
119.477 -350.575 909 0.568627 0.572549 0.682353 255 255 255 255 
120.251 -347.875 902 0.568627 0.572549 0.682353 255 255 255 255 
121.945 -347.875 902 0.556863 0.560784 0.690196 255 255 255 255 
123.638 -347.875 902 0.541176 0.552941 0.690196 255 255 255 255 
125.332 -347.875 902 0.533333 0.54902 0.694118 255 255 255 255 
127.307 -348.647 904 0.52549 0.552941 0.698039 255 255 255 255 
129.005 -348.647 904 0.560784 0.552941 0.701961 255 255 255 255 
131.136 -349.804 907 0.596078 0.556863 0.713726 255 255 255 255 
132.839 -349.804 907 0.588235 0.564706 0.72549 255 255 255 255 
134.839 -350.575 909 0.580392 0.560784 0.721569 255 255 255 255 
136.846 -351.346 911 0.568627 0.568627 0.721569 255 255 255 255 
139.013 -352.503 914 0.560784 0.580392 0.72549 255 255 255 255 
140.729 -352.503 914 0.545098 0.552941 0.729412 255 255 255 255 
142.757 -353.275 916 0.533333 0.537255 0.713726 255 255 255 255 
145.266 -355.203 921 0.533333 0.537255 0.713726 255 255 255 255 
146.995 -355.203 921 0.533333 0.533333 0.701961 255 255 255 255 
148.724 -355.203 921 0.529412 0.537255 0.694118 255 255 255 255 
150.454 -355.203 921 0.552941 0.541176 0.690196 255 255 255 255 
152.183 -355.203 921 0.568627 0.537255 0.690196 255 255 255 255 
153.578 -354.432 919 0.54902 0.537255 0.694118 255 255 255 255 
155.304 -354.432 919 0.533333 0.529412 0.682353 255 255 255 255 
157.029 -354.432 919 0.529412 0.517647 0.670588 255 255 255 255 
158.755 -354.432 919 0.529412 0.517647 0.662745 255 255 255 255 
160.48 -354.432 919 0.533333 0.517647 0.654902 255 255 255 255 
162.206 -354.432 919 0.537255 0.513726 0.670588 255 255 255 255 
163.04 -352.503 914 0.541176 0.505882 0.690196 255 255 255 255 
164.756 -352.503 914 0.54902 0.545098 0.705882 255 255 255 255 
166.472 -352.503 914 0.54902 0.545098 0.705882 255 255 255 255 
168.188 -352.503 914 0.552941 0.568627 0.72549 255 255 255 255 
169.905 -352.503 914 0.560784 0.568627 0.709804 255 255 255 255 
171.621 -352.503 914 0.560784 0.580392 0.694118 255 255 255 255 
173.337 -352.503 914 0.560784 0.576471 0.658824 255 255 255 255 
175.053 -352.503 914 0.466667 0.607843 0.627451 255 255 255 255 
177.156 -353.275 916 0.376471 0.396078 0.505882 255 255 255 255 
178.876 -353.275 916 0.188235 0.376471 0.388235 255 255 255 255 
181.188 -354.432 919 0.00392157 0.0941176 0.207843 255 255 255 255 
183.311 -355.203 921 0.0352941 0.00392157 0.0235294 255 255 255 255 
185.442 -355.974 923 0.0666667 0.054902 0.0941176 255 255 255 255 
188.19 -357.903 928 0.0666667 0.054902 0.0941176 255 255 255 255 
190.955 -359.831 933 0.0588235 0.0745098 0.160784 255 255 255 255 
192.707 -359.831 933 0.054902 0.0784314 0.184314 255 255 255 255 
195.71 -362.145 939 0.054902 0.0784314 0.184314 255 255 255 255 
197.893 -362.916 941 0.0666667 0.0862745 0.207843 255 255 255 255 
199.66 -362.916 941 0.0823529 0.0784314 0.196078 255 255 255 255 
201.427 -362.916 941 0.0745098 0.0784314 0.188235 255 255 255 255 
203.194 -362.916 941 0.0705882 0.0705882 0.196078 255 255 255 255 
205.614 -364.073 944 0.0784314 0.0823529 0.207843 255 255 255 255 
207.826 -364.845 946 0.0901961 0.0941176 0.203922 255 255 255 255 
209.603 -364.845 946 0.0980392 0.113725 0.196078 255 255 255 255 
212.049 -366.002 949 0.105882 0.113725 0.207843 255 255 255 255 
-202.513 -354.223 914 0.52549 0.517647 0.670588 255 255 255 255 
-200.137 -353.06 911 0.541176 0.521569 0.670588 255 255 255 255 
-197.991 -352.285 909 0.552941 0.52549 0.670588 255 255 255 255 
-195.852 -351.51 907 0.545098 0.529412 0.670588 255 255 255 255 
-194.149 -351.51 907 0.533333 0.521569 0.670588 255 255 255 255 
-191.81 -350.347 904 0.529412 0.529412 0.670588 255 255 255 255 
-189.692 -349.572 902 0.52549 0.537255 0.654902 255 255 255 255 
-187.373 -348.41 899 0.501961 0.517647 0.643137 255 255 255 255 
-185.685 -348.41 899 0.482353 0.490196 0.623529 255 255 255 255 
-183.997 -348.41 899 0.490196 0.494118 0.603922 255 255 255 255 
-182.309 -348.41 899 0.501961 0.505882 0.619608 255 255 255 255 
-180.621 -348.41 899 0.501961 0.505882 0.619608 255 255 255 255 
-178.534 -347.634 897 0.505882 0.501961 0.635294 255 255 255 255 
-176.85 -347.634 897 0.509804 0.501961 0.643137 255 255 255 255 
-175.166 -347.634 897 0.517647 0.509804 0.65098 255 255 255 255 
-173.482 -347.634 897 0.52549 0.517647 0.65098 255 255 255 255 
-171.797 -347.634 897 0.513726 0.521569 0.65098 255 255 255 255 
-170.113 -347.634 897 0.505882 0.52549 0.654902 255 255 255 255 
-168.429 -347.634 897 0.505882 0.517647 0.658824 255 255 255 255 
-166.744 -347.634 897 0.509804 0.521569 0.662745 255 255 255 255 
-165.06 -347.634 897 0.517647 0.521569 0.670588 255 255 255 255 
-163.376 -347.634 897 0.52549 0.52549 0.67451 255 255 255 255 
-161.331 -346.859 895 0.52549 0.541176 0.682353 255 255 255 255 
-159.651 -346.859 895 0.52549 0.560784 0.686275 255 255 255 255 
-158.323 -347.634 897 0.52549 0.560784 0.686275 255 255 255 255 
-156.639 -347.634 897 0.521569 0.552941 0.694118 255 255 255 255 
-154.954 -347.634 897 0.517647 0.552941 0.690196 255 255 255 255 
-153.27 -347.634 897 0.513726 0.545098 0.686275 255 255 255 255 
-151.924 -348.41 899 0.509804 0.541176 0.67451 255 255 255 255 
-150.236 -348.41 899 0.505882 0.533333 0.662745 255 255 255 255 
-148.548 -348.41 899 0.498039 0.533333 0.662745 255 255 255 255 
-146.86 -348.41 899 0.490196 0.521569 0.662745 255 255 255 255 
-144.849 -347.634 897 0.486275 0.513726 0.658824 255 255 255 255 
-143.164 -347.634 897 0.494118 0.513726 0.654902 255 255 255 255 
-141.48 -347.634 897 0.505882 0.509804 0.65098 255 255 255 255 
-139.796 -347.634 897 0.498039 0.501961 0.647059 255 255 255 255 
-138.112 -347.634 897 0.486275 0.501961 0.65098 255 255 255 255 
-136.427 -347.634 897 0.486275 0.501961 0.65098 255 255 255 255 
-134.743 -347.634 897 0.498039 0.505882 0.658824 255 255 255 255 
-133.059 -347.634 897 0.509804 0.517647 0.658824 255 255 255 255 
-131.374 -347.634 897 0.498039 0.517647 0.658824 255 255 255 255 
-129.69 -347.634 897 0.490196 0.513726 0.647059 255 255 255 255 
-128.006 -347.634 897 0.494118 0.509804 0.635294 255 255 255 255 
-126.322 -347.634 897 0.498039 0.509804 0.65098 255 255 255 255 
-124.915 -348.41 899 0.498039 0.509804 0.670588 255 255 255 255 
-123.227 -348.41 899 0.501961 0.521569 0.670588 255 255 255 255 
-121.945 -349.572 902 0.517647 0.521569 0.670588 255 255 255 255 
-120.251 -349.572 902 0.529412 0.529412 0.686275 255 255 255 255 
-118.82 -350.347 904 0.513726 0.521569 0.705882 255 255 255 255 
-117.123 -350.347 904 0.498039 0.517647 0.682353 255 255 255 255 
-115.425 -350.347 904 0.498039 0.517647 0.682353 255 255 255 255 
-114.105 -351.51 907 0.486275 0.509804 0.658824 255 255 255 255 
-112.402 -351.51 907 0.478431 0.505882 0.654902 255 255 255 255 
-110.699 -351.51 907 0.478431 0.501961 0.654902 255 255 255 255 
-108.996 -351.51 907 0.482353 0.494118 0.647059 255 255 255 255 
-107.293 -351.51 907 0.482353 0.498039 0.643137 255 255 255 255 
-105.823 -352.285 909 0.486275 0.501961 0.647059 255 255 255 255 
-104.116 -352.285 909 0.486275 0.501961 0.654902 255 255 255 255 
-102.409 -352.285 909 0.486275 0.494118 0.654902 255 255 255 255 
-100.481 -351.51 907 0.470588 0.490196 0.658824 255 255 255 255 
-98.7777 -351.51 907 0.458824 0.47451 0.654902 255 255 255 255 
-96.7536 -350.347 904 0.494118 0.490196 0.65098 255 255 255 255 
-94.8458 -349.572 902 0.494118 0.490196 0.65098 255 255 255 255 
-93.1522 -349.572 902 0.533333 0.564706 0.701961 255 255 255 255 
-91.4585 -349.572 902 0.568627 0.588235 0.752941 255 255 255 255 
-89.7648 -349.572 902 0.603922 0.65098 0.760784 255 255 255 255 
-88.0712 -349.572 902 0.568627 0.623529 0.768627 255 255 255 255 
-86.3775 -349.572 902 0.533333 0.552941 0.698039 255 255 255 255 
-84.4021 -348.41 899 0.337255 0.427451 0.631373 255 255 255 255 
-82.7141 -348.41 899 0.141176 0.00392157 0.439216 255 255 255 255 
-81.026 -348.41 899 0.133333 0.0666667 0.25098 255 255 255 255 
-79.338 -348.41 899 0.129412 0.192157 0.294118 255 255 255 255 
-77.4772 -347.634 897 0.14902 0.176471 0.337255 255 255 255 255 
-75.6239 -346.859 895 0.172549 0.188235 0.32549 255 255 255 255 
-73.6955 -345.697 892 0.184314 0.180392 0.313726 255 255 255 255 
-71.8592 -344.922 890 0.184314 0.180392 0.313726 255 255 255 255 
-70.188 -344.922 890 0.196078 0.184314 0.305882 255 255 255 255 
-68.209 -343.371 886 0.188235 0.184314 0.301961 255 255 255 255 
-66.1698 -341.434 881 0.184314 0.180392 0.305882 255 255 255 255 
-64.5155 -341.434 881 0.2 0.188235 0.309804 255 255 255 255 
-61.791 -335.62 866 0.231373 0.219608 0.341176 255 255 255 255 
-60.1649 -335.62 866 0.247059 0.25098 0.356863 255 255 255 255 
-58.5388 -335.62 866 0.254902 0.258824 0.372549 255 255 255 255 
-56.9128 -335.62 866 0.262745 0.282353 0.388235 255 255 255 255 
-55.2867 -335.62 866 0.262745 0.270588 0.403922 255 255 255 255 
-53.9084 -337.171 870 0.262745 0.270588 0.403922 255 255 255 255 
-53.4766 -344.922 890 0.266667 0.266667 0.396078 255 255 255 255 
-51.8055 -344.922 890 0.266667 0.266667 0.396078 255 255 255 255 
-50.247 -345.697 892 0.25098 0.25098 0.392157 255 255 255 255 
-48.4632 -344.922 890 0.239216 0.243137 0.380392 255 255 255 255 
-46.792 -344.922 890 0.235294 0.227451 0.372549 255 255 255 255 
-45.1209 -344.922 890 0.231373 0.227451 0.360784 255 255 255 255 
-43.3521 -344.147 888 0.231373 0.223529 0.34902 255 255 255 255 
-41.5908 -343.371 886 0.231373 0.235294 0.352941 255 255 255 255 
-39.9272 -343.371 886 0.235294 0.231373 0.356863 255 255 255 255 
-38.2635 -343.371 886 0.239216 0.223529 0.360784 255 255 255 255 
-36.5999 -343.371 886 0.231373 0.243137 0.364706 255 255 255 255 
-34.9363 -343.371 886 0.227451 0.266667 0.372549 255 255 255 255 
-33.2727 -343.371 886 0.254902 0.258824 0.384314 255 255 255 255 
-31.609 -343.371 886 0.286275 0.262745 0.396078 255 255 255 255 
-30.013 -344.147 888 0.286275 0.262745 0.396078 255 255 255 255 
-28.3456 -344.147 888 0.266667 0.262745 0.411765 255 255 255 255 
-26.6181 -343.371 886 0.25098 0.266667 0.403922 255 255 255 255 
-24.9545 -343.371 886 0.258824 0.270588 0.396078 255 255 255 255 
-23.3434 -344.147 888 0.266667 0.282353 0.403922 255 255 255 255 
-21.7249 -344.922 890 0.270588 0.286275 0.415686 255 255 255 255 
-20.0537 -344.922 890 0.27451 0.282353 0.423529 255 255 255 255 
-18.3826 -344.922 890 0.282353 0.286275 0.431373 255 255 255 255 
-16.7114 -344.922 890 0.301961 0.301961 0.447059 255 255 255 255 
-15.0403 -344.922 890 0.301961 0.305882 0.454902 255 255 255 255 
-13.3691 -344.922 890 0.305882 0.309804 0.454902 255 255 255 255 
-11.6717 -344.147 888 0.337255 0.32549 0.458824 255 255 255 255 
-10.0043 -344.147 888 0.337255 0.32549 0.458824 255 255 255 255 
-8.33694 -344.147 888 0.368627 0.321569 0.466667 255 255 255 255 
-6.65452 -343.371 886 0.34902 0.329412 0.478431 255 255 255 255 
-4.99089 -343.371 886 0.333333 0.317647 0.486275 255 255 255 255 
-3.32728 -343.371 886 0.321569 0.317647 0.494118 255 255 255 255 
-1.66364 -343.371 886 0.313726 0.32549 0.482353 255 255 255 255 
0 -343.371 886 0.321569 0.333333 0.47451 255 255 255 255 
1.65797 -342.209 883 0.329412 0.345098 0.498039 255 255 255 255 
3.3085 -341.434 881 0.356863 0.364706 0.521569 255 255 255 255 
4.96272 -341.434 881 0.384314 0.360784 0.537255 255 255 255 255 
6.617 -341.434 881 0.415686 0.356863 0.552941 255 255 255 255 
8.25245 -340.659 879 0.447059 0.431373 0.533333 255 255 255 255 
9.90291 -340.659 879 0.490196 0.466667 0.517647 255 255 255 255 
11.5271 -339.883 877 0.490196 0.466667 0.517647 255 255 255 255 
13.1739 -339.883 877 0.533333 0.423529 0.407843 255 255 255 255 
14.8206 -339.883 877 0.545098 0.388235 0.298039 255 255 255 255 
16.4673 -339.883 877 0.556863 0.380392 0.345098 255 255 255 255 
18.114 -339.883 877 0.560784 0.333333 0.396078 255 255 255 255 
19.7608 -339.883 877 0.568627 0.537255 0.537255 255 255 255 255 
21.4075 -339.883 877 0.596078 0.607843 0.678431 255 255 255 255 
23.0543 -339.883 877 0.623529 0.596078 0.690196 255 255 255 255 
24.7573 -340.659 879 0.588235 0.584314 0.705882 255 255 255 255 
26.7984 -345.697 892 0.552941 0.564706 0.698039 255 255 255 255 
28.4733 -345.697 892 0.556863 0.541176 0.690196 255 255 255 255 
30.2496 -346.859 895 0.564706 0.572549 0.698039 255 255 255 255 
31.8231 -345.697 892 0.564706 0.592157 0.709804 255 255 255 255 
33.16 -342.209 883 0.564706 0.592157 0.709804 255 255 255 255 
34.818 -342.209 883 0.568627 0.541176 0.682353 255 255 255 255 
36.476 -342.209 883 0.521569 0.592157 0.658824 255 255 255 255 
38.0476 -341.434 881 0.47451 0.423529 0.627451 255 255 255 255 
39.7019 -341.434 881 0.435294 0.470588 0.6 255 255 255 255 
41.3561 -341.434 881 0.4 0.392157 0.576471 255 255 255 255 
43.0103 -341.434 881 0.34902 0.454902 0.556863 255 255 255 255 
44.766 -342.209 883 0.301961 0.290196 0.529412 255 255 255 255 
46.3188 -341.434 881 0.235294 0.286275 0.498039 255 255 255 255 
47.9731 -341.434 881 0.168627 0.25098 0.47451 255 255 255 255 
49.6273 -341.434 881 0.207843 0.192157 0.45098 255 255 255 255 
51.2815 -341.434 881 0.247059 0.164706 0.4 255 255 255 255 
52.9358 -341.434 881 0.247059 0.164706 0.4 255 255 255 255 
54.714 -342.209 883 0.239216 0.180392 0.34902 255 255 255 255 
56.2443 -341.434 881 0.231373 0.196078 0.34902 255 255 255 255 
57.7671 -340.659 879 0.196078 0.215686 0.34902 255 255 255 255 
59.4176 -340.659 879 0.164706 0.211765 0.337255 255 255 255 255 
61.0681 -340.659 879 0.192157 0.207843 0.329412 255 255 255 255 
62.7186 -340.659 879 0.223529 0.188235 0.321569 255 255 255 255 
64.2226 -339.883 877 0.25098 0.164706 0.313726 255 255 255 255 
65.644 -338.721 874 0.278431 0.2 0.32549 255 255 255 255 
67.2851 -338.721 874 0.294118 0.203922 0.341176 255 255 255 255 
68.9262 -338.721 874 0.313726 0.290196 0.384314 255 255 255 255 
70.5673 -338.721 874 0.4 0.290196 0.431373 255 255 255 255 
75.2653 -353.06 911 0.490196 0.462745 0.517647 255 255 255 255 
76.8069 -352.285 909 0.490196 0.462745 0.517647 255 255 255 255 
78.5137 -352.285 909 0.494118 0.517647 0.603922 255 255 255 255 
79.7793 -350.347 904 0.498039 0.54902 0.627451 255 255 255 255 
81.2964 -349.572 902 0.45098 0.6 0.65098 255 255 255 255 
82.5301 -347.634 897 0.407843 0.423529 0.556863 255 255 255 255 
84.2144 -347.634 897 0.352941 0.364706 0.466667 255 255 255 255 
85.8986 -347.634 897 0.298039 0.317647 0.466667 255 255 255 255 
87.583 -347.634 897 0.309804 0.305882 0.462745 255 255 255 255 
89.4662 -348.41 899 0.321569 0.313726 0.443137 255 255 255 255 
91.1543 -348.41 899 0.32549 0.32549 0.423529 255 255 255 255 
93.1522 -349.572 902 0.329412 0.345098 0.435294 255 255 255 255 
95.0561 -350.347 904 0.341176 0.356863 0.447059 255 255 255 255 
97.0747 -351.51 907 0.352941 0.368627 0.458824 255 255 255 255 
99.2133 -353.06 911 0.352941 0.368627 0.458824 255 255 255 255 
101.478 -354.998 916 0.368627 0.384314 0.47451 255 255 255 255 
103.761 -356.936 921 0.388235 0.368627 0.490196 255 255 255 255 
105.49 -356.936 921 0.403922 0.34902 0.505882 255 255 255 255 
107.22 -356.936 921 0.423529 0.392157 0.513726 255 255 255 255 
108.949 -356.936 921 0.427451 0.427451 0.52549 255 255 255 255 
110.679 -356.936 921 0.435294 0.439216 0.537255 255 255 255 255 
112.408 -356.936 921 0.486275 0.447059 0.54902 255 255 255 255 
113.27 -354.223 914 0.541176 0.505882 0.615686 255 255 255 255 
114.986 -354.223 914 0.545098 0.552941 0.682353 255 255 255 255 
116.064 -352.285 909 0.552941 0.564706 0.682353 255 255 255 255 
117.511 -351.51 907 0.552941 0.568627 0.686275 255 255 255 255 
118.82 -350.347 904 0.552941 0.564706 0.686275 255 255 255 255 
120.251 -349.572 902 0.552941 0.564706 0.686275 255 255 255 255 
121.539 -348.41 899 0.54902 0.564706 0.686275 255 255 255 255 
123.227 -348.41 899 0.545098 0.552941 0.686275 255 255 255 255 
124.915 -348.41 899 0.537255 0.552941 0.686275 255 255 255 255 
127.026 -349.572 902 0.533333 0.552941 0.694118 255 255 255 255 
128.719 -349.572 902 0.552941 0.556863 0.701961 255 255 255 255 
130.702 -350.347 904 0.572549 0.560784 0.713726 255 255 255 255 
132.839 -351.51 907 0.572549 0.564706 0.729412 255 255 255 255 
134.839 -352.285 909 0.572549 0.576471 0.729412 255 255 255 255 
136.846 -353.06 911 0.560784 0.572549 0.729412 255 255 255 255 
138.557 -353.06 911 0.552941 0.564706 0.72549 255 255 255 255 
140.729 -354.223 914 0.537255 0.529412 0.72549 255 255 255 255 
142.445 -354.223 914 0.52549 0.529412 0.713726 255 255 255 255 
144.162 -354.223 914 0.52549 0.529412 0.713726 255 255 255 255 
145.878 -354.223 914 0.529412 0.533333 0.701961 255 255 255 255 
147.594 -354.223 914 0.537255 0.533333 0.694118 255 255 255 255 
149.31 -354.223 914 0.552941 0.541176 0.690196 255 255 255 255 
151.852 -356.161 919 0.568627 0.537255 0.690196 255 255 255 255 
153.077 -354.998 916 0.54902 0.537255 0.694118 255 255 255 255 
154.797 -354.998 916 0.533333 0.529412 0.682353 255 255 255 255 
156.517 -354.998 916 0.529412 0.517647 0.670588 255 255 255 255 
157.891 -354.223 914 0.52549 0.517647 0.658824 255 255 255 255 
159.607 -354.223 914 0.529412 0.517647 0.647059 255 255 255 255 
161.324 -354.223 914 0.537255 0.521569 0.666667 255 255 255 255 
163.04 -354.223 914 0.541176 0.533333 0.686275 255 255 255 255 
164.215 -353.06 911 0.54902 0.568627 0.717647 255 255 255 255 
165.926 -353.06 911 0.54902 0.568627 0.717647 255 255 255 255 
167.268 -352.285 909 0.556863 0.564706 0.74902 255 255 255 255 
168.975 -352.285 909 0.560784 0.560784 0.721569 255 255 255 255 
170.682 -352.285 909 0.560784 0.560784 0.694118 255 255 255 255 
172.768 -353.06 911 0.556863 0.568627 0.654902 255 255 255 255 
174.479 -353.06 911 0.454902 0.490196 0.619608 255 255 255 255 
176.769 -354.223 914 0.34902 0.168627 0.501961 255 255 255 255 
178.486 -354.223 914 0.176471 0.164706 0.384314 255 255 255 255 
180.596 -354.998 916 0.00392157 0.00392157 0.211765 255 255 255 255 
182.913 -356.161 919 0.0313726 0.0196078 0.0431373 255 255 255 255 
185.041 -356.936 921 0.0627451 0.0666667 0.101961 255 255 255 255 
188.19 -359.649 928 0.0627451 0.0666667 0.101961 255 255 255 255 
190.546 -360.811 931 0.0627451 0.0705882 0.160784 255 255 255 255 
192.707 -361.586 933 0.0588235 0.0784314 0.168627 255 255 255 255 
195.084 -362.749 936 0.0588235 0.0784314 0.168627 255 255 255 255 
197.473 -363.912 939 0.0666667 0.0745098 0.180392 255 255 255 255 
199.236 -363.912 939 0.0745098 0.0705882 0.192157 255 255 255 255 
200.999 -363.912 939 0.0745098 0.0705882 0.207843 255 255 255 255 
203.194 -364.687 941 0.0784314 0.0666667 0.211765 255 255 255 255 
204.961 -364.687 941 0.0862745 0.0745098 0.215686 255 255 255 255 
207.387 -365.849 944 0.0901961 0.0901961 0.207843 255 255 255 255 
209.16 -365.849 944 0.0980392 0.105882 0.203922 255 255 255 255 
211.379 -366.625 946 0.105882 0.117647 0.215686 255 255 255 255 
213.155 -366.625 946 0.105882 0.117647 0.227451 255 255 255 255 
-203.558 -354.774 911 0.521569 0.513726 0.662745 255 255 255 255 
-201.848 -354.774 911 0.521569 0.513726 0.654902 255 255 255 255 
-199.698 -353.995 909 0.52549 0.521569 0.647059 255 255 255 255 
-197.555 -353.216 907 0.529412 0.517647 0.65098 255 255 255 255 
-195.852 -353.216 907 0.529412 0.52549 0.658824 255 255 255 255 
-193.507 -352.048 904 0.529412 0.529412 0.662745 255 255 255 255 
-191.385 -351.269 902 0.537255 0.541176 0.662745 255 255 255 255 
-189.692 -351.269 902 0.545098 0.537255 0.662745 255 255 255 255 
-187.373 -350.101 899 0.529412 0.541176 0.662745 255 255 255 255 
-185.272 -349.322 897 0.513726 0.505882 0.647059 255 255 255 255 
-183.587 -349.322 897 0.505882 0.494118 0.631373 255 255 255 255 
-181.497 -348.543 895 0.501961 0.501961 0.639216 255 255 255 255 
-179.817 -348.543 895 0.501961 0.501961 0.639216 255 255 255 255 
-178.136 -348.543 895 0.505882 0.505882 0.647059 255 255 255 255 
-176.456 -348.543 895 0.509804 0.509804 0.647059 255 255 255 255 
-174.775 -348.543 895 0.521569 0.517647 0.65098 255 255 255 255 
-173.095 -348.543 895 0.533333 0.517647 0.647059 255 255 255 255 
-171.414 -348.543 895 0.517647 0.521569 0.647059 255 255 255 255 
-169.734 -348.543 895 0.505882 0.517647 0.65098 255 255 255 255 
-168.053 -348.543 895 0.501961 0.517647 0.654902 255 255 255 255 
-166.373 -348.543 895 0.501961 0.513726 0.654902 255 255 255 255 
-164.692 -348.543 895 0.509804 0.513726 0.654902 255 255 255 255 
-162.465 -347.375 892 0.517647 0.517647 0.658824 255 255 255 255 
-160.79 -347.375 892 0.517647 0.52549 0.662745 255 255 255 255 
-159.115 -347.375 892 0.517647 0.537255 0.666667 255 255 255 255 
-157.97 -348.543 895 0.517647 0.537255 0.666667 255 255 255 255 
-156.289 -348.543 895 0.517647 0.54902 0.67451 255 255 255 255 
-154.609 -348.543 895 0.517647 0.541176 0.67451 255 255 255 255 
-152.928 -348.543 895 0.513726 0.545098 0.678431 255 255 255 255 
-151.586 -349.322 897 0.513726 0.537255 0.670588 255 255 255 255 
-149.902 -349.322 897 0.509804 0.537255 0.662745 255 255 255 255 
-148.217 -349.322 897 0.509804 0.52549 0.662745 255 255 255 255 
-146.533 -349.322 897 0.505882 0.517647 0.662745 255 255 255 255 
-144.849 -349.322 897 0.501961 0.513726 0.658824 255 255 255 255 
-143.164 -349.322 897 0.509804 0.513726 0.658824 255 255 255 255 
-141.48 -349.322 897 0.517647 0.505882 0.647059 255 255 255 255 
-139.796 -349.322 897 0.498039 0.498039 0.639216 255 255 255 255 
-137.804 -348.543 895 0.478431 0.505882 0.65098 255 255 255 255 
-136.123 -348.543 895 0.478431 0.505882 0.65098 255 255 255 255 
-134.443 -348.543 895 0.490196 0.509804 0.662745 255 255 255 255 
-132.762 -348.543 895 0.501961 0.509804 0.670588 255 255 255 255 
-131.081 -348.543 895 0.501961 0.513726 0.67451 255 255 255 255 
-129.401 -348.543 895 0.501961 0.513726 0.662745 255 255 255 255 
-127.72 -348.543 895 0.498039 0.517647 0.65098 255 255 255 255 
-126.322 -349.322 897 0.494118 0.517647 0.658824 255 255 255 255 
-124.637 -349.322 897 0.498039 0.52549 0.666667 255 255 255 255 
-123.227 -350.101 899 0.501961 0.517647 0.666667 255 255 255 255 
