ply
format ascii 1.0
comment VCGLIB generated
element vertex 742
property float x
property float y
property float z
property float nx
property float ny
property float nz
property uchar red
property uchar green
property uchar blue
property uchar alpha
element face 0
property list uchar int vertex_indices
end_header
-10.8042 21.6503 822 0.54902 0.403922 0.329412 255 255 255 255 
-9.26077 21.6503 822 0.552941 0.4 0.32549 255 255 255 255 
-7.7173 21.6503 822 0.537255 0.388235 0.32549 255 255 255 255 
-6.17384 21.6503 822 0.52549 0.384314 0.317647 255 255 255 255 
-4.64164 21.7029 824 0.517647 0.372549 0.309804 255 255 255 255 
-3.09444 21.7029 824 0.513726 0.360784 0.298039 255 255 255 255 
-1.54722 21.7029 824 0.505882 0.34902 0.290196 255 255 255 255 
0 21.7556 826 0.505882 0.34902 0.290196 255 255 255 255 
1.55095 21.7556 826 0.498039 0.341176 0.286275 255 255 255 255 
3.10947 21.8083 828 0.486275 0.329412 0.286275 255 255 255 255 
4.66417 21.8083 828 0.478431 0.321569 0.266667 255 255 255 255 
6.23395 21.861 830 0.454902 0.313726 0.247059 255 255 255 255 
7.81119 21.9136 832 0.435294 0.309804 0.227451 255 255 255 255 
9.3734 21.9136 832 0.403922 0.27451 0.207843 255 255 255 255 
10.962 21.9663 834 0.372549 0.231373 0.192157 255 255 255 255 
12.558 22.019 836 0.345098 0.215686 0.176471 255 255 255 255 
14.1278 22.019 836 0.317647 0.172549 0.156863 255 255 255 255 
15.735 22.0717 838 0.298039 0.168627 0.137255 255 255 255 255 
17.3498 22.1243 840 0.298039 0.168627 0.137255 255 255 255 255 
18.9271 22.1243 840 0.278431 0.184314 0.129412 255 255 255 255 
20.602 22.2297 844 0.266667 0.180392 0.121569 255 255 255 255 
22.2394 22.2824 846 0.254902 0.196078 0.0941176 255 255 255 255 
23.8279 22.2824 846 0.215686 0.145098 0.0666667 255 255 255 255 
25.4164 22.2824 846 0.176471 0.0627451 0.0627451 255 255 255 255 
27.1007 22.3614 849 0.133333 0.054902 0.0588235 255 255 255 255 
28.6948 22.3614 849 0.0901961 0.054902 0.0431373 255 255 255 255 
30.289 22.3614 849 0.0784314 0.0509804 0.027451 255 255 255 255 
31.8832 22.3614 849 0.0627451 0.0588235 0.0392157 255 255 255 255 
33.359 22.2824 846 0.0627451 0.0509804 0.054902 255 255 255 255 
34.9476 22.2824 846 0.0627451 0.054902 0.054902 255 255 255 255 
36.5361 22.2824 846 0.0627451 0.054902 0.054902 255 255 255 255 
38.1246 22.2824 846 0.0588235 0.054902 0.054902 255 255 255 255 
39.7131 22.2824 846 0.054902 0.054902 0.054902 255 255 255 255 
-75.455 20.9109 855 0.607843 0.45098 0.380392 255 255 255 255 
-73.6768 20.862 853 0.6 0.45098 0.372549 255 255 255 255 
-72.0751 20.862 853 0.596078 0.439216 0.360784 255 255 255 255 
-70.4734 20.862 853 0.588235 0.435294 0.352941 255 255 255 255 
-68.1451 20.6419 844 0.584314 0.419608 0.34902 255 255 255 255 
-66.4026 20.593 842 0.572549 0.411765 0.345098 255 255 255 255 
-64.8216 20.593 842 0.560784 0.4 0.333333 255 255 255 255 
-63.2406 20.593 842 0.54902 0.392157 0.321569 255 255 255 255 
-61.5131 20.544 840 0.541176 0.376471 0.317647 255 255 255 255 
-59.9358 20.544 840 0.537255 0.372549 0.313726 255 255 255 255 
-58.2196 20.4951 838 0.533333 0.372549 0.305882 255 255 255 255 
-56.5109 20.4462 836 0.533333 0.376471 0.298039 255 255 255 255 
-54.9412 20.4462 836 0.533333 0.376471 0.298039 255 255 255 255 
-53.2438 20.3973 834 0.533333 0.364706 0.298039 255 255 255 255 
-51.5538 20.3484 832 0.533333 0.364706 0.298039 255 255 255 255 
-49.6311 20.2016 826 0.533333 0.368627 0.301961 255 255 255 255 
-47.9637 20.1527 824 0.533333 0.376471 0.305882 255 255 255 255 
-46.4165 20.1527 824 0.533333 0.376471 0.301961 255 255 255 255 
-44.7604 20.1038 822 0.52549 0.372549 0.298039 255 255 255 255 
-43.2169 20.1038 822 0.517647 0.368627 0.294118 255 255 255 255 
-41.6735 20.1038 822 0.521569 0.364706 0.294118 255 255 255 255 
-40.13 20.1038 822 0.52549 0.364706 0.298039 255 255 255 255 
-38.5865 20.1038 822 0.529412 0.360784 0.301961 255 255 255 255 
-37.043 20.1038 822 0.529412 0.360784 0.301961 255 255 255 255 
-35.4996 20.1038 822 0.533333 0.364706 0.301961 255 255 255 255 
-33.9561 20.1038 822 0.533333 0.364706 0.305882 255 255 255 255 
-32.4127 20.1038 822 0.533333 0.360784 0.305882 255 255 255 255 
-30.8692 20.1038 822 0.533333 0.356863 0.309804 255 255 255 255 
-29.3257 20.1038 822 0.533333 0.360784 0.309804 255 255 255 255 
-27.7823 20.1038 822 0.541176 0.364706 0.313726 255 255 255 255 
-26.2388 20.1038 822 0.54902 0.372549 0.313726 255 255 255 255 
-24.6954 20.1038 822 0.545098 0.388235 0.313726 255 255 255 255 
-23.1519 20.1038 822 0.541176 0.380392 0.32549 255 255 255 255 
-21.5559 20.0549 820 0.556863 0.384314 0.337255 255 255 255 255 
-20.0162 20.0549 820 0.576471 0.384314 0.313726 255 255 255 255 
-18.4765 20.0549 820 0.576471 0.384314 0.313726 255 255 255 255 
-16.9368 20.0549 820 0.560784 0.388235 0.294118 255 255 255 255 
-15.3971 20.0549 820 0.54902 0.388235 0.321569 255 255 255 255 
-13.8573 20.0549 820 0.54902 0.396078 0.34902 255 255 255 255 
-12.3176 20.0549 820 0.54902 0.4 0.333333 255 255 255 255 
-10.7779 20.0549 820 0.556863 0.411765 0.321569 255 255 255 255 
-9.23824 20.0549 820 0.568627 0.396078 0.317647 255 255 255 255 
-7.7173 20.1038 822 0.54902 0.392157 0.313726 255 255 255 255 
-6.17384 20.1038 822 0.533333 0.384314 0.313726 255 255 255 255 
-4.63037 20.1038 822 0.52549 0.392157 0.317647 255 255 255 255 
-3.08693 20.1038 822 0.521569 0.368627 0.309804 255 255 255 255 
-1.54722 20.1527 824 0.513726 0.356863 0.301961 255 255 255 255 
0 20.1527 824 0.513726 0.356863 0.301961 255 255 255 255 
1.54719 20.1527 824 0.505882 0.34902 0.298039 255 255 255 255 
3.10195 20.2016 826 0.494118 0.341176 0.294118 255 255 255 255 
4.66417 20.2506 828 0.486275 0.333333 0.278431 255 255 255 255 
6.23395 20.2995 830 0.466667 0.32549 0.266667 255 255 255 255 
7.81119 20.3484 832 0.45098 0.313726 0.243137 255 255 255 255 
9.3734 20.3484 832 0.419608 0.305882 0.223529 255 255 255 255 
10.962 20.3973 834 0.392157 0.282353 0.196078 255 255 255 255 
12.5279 20.3973 834 0.368627 0.27451 0.168627 255 255 255 255 
14.1278 20.4462 836 0.34902 0.219608 0.160784 255 255 255 255 
15.735 20.4951 838 0.333333 0.192157 0.152941 255 255 255 255 
17.3085 20.4951 838 0.333333 0.192157 0.152941 255 255 255 255 
18.9271 20.544 840 0.321569 0.203922 0.145098 255 255 255 255 
20.5532 20.593 842 0.309804 0.203922 0.137255 255 255 255 255 
22.1868 20.6419 844 0.301961 0.219608 0.109804 255 255 255 255 
23.7715 20.6419 844 0.258824 0.227451 0.0862745 255 255 255 255 
25.4164 20.6908 846 0.219608 0.12549 0.0862745 255 255 255 255 
27.0049 20.6908 846 0.168627 0.0509804 0.0823529 255 255 255 255 
28.5934 20.6908 846 0.117647 0.0470588 0.0588235 255 255 255 255 
30.182 20.6908 846 0.0941176 0.0392157 0.0313726 255 255 255 255 
31.8832 20.7642 849 0.0745098 0.0509804 0.0431373 255 255 255 255 
33.359 20.6908 846 0.0627451 0.0509804 0.054902 255 255 255 255 
34.9476 20.6908 846 0.054902 0.0509804 0.054902 255 255 255 255 
36.5361 20.6908 846 0.054902 0.0509804 0.054902 255 255 255 255 
38.1246 20.6908 846 0.054902 0.054902 0.054902 255 255 255 255 
39.7131 20.6908 846 0.054902 0.0509804 0.054902 255 255 255 255 
41.4481 20.7642 849 0.0509804 0.0470588 0.054902 255 255 255 255 
-73.504 19.2121 851 0.596078 0.443137 0.384314 255 255 255 255 
-71.9061 19.2121 851 0.588235 0.435294 0.372549 255 255 255 255 
-70.143 19.1669 849 0.580392 0.431373 0.360784 255 255 255 255 
-68.1451 19.054 844 0.576471 0.423529 0.352941 255 255 255 255 
-66.4026 19.0089 842 0.564706 0.411765 0.345098 255 255 255 255 
-64.8216 19.0089 842 0.556863 0.4 0.333333 255 255 255 255 
-63.2406 19.0089 842 0.54902 0.384314 0.321569 255 255 255 255 
-61.5131 18.9637 840 0.541176 0.372549 0.317647 255 255 255 255 
-59.7931 18.9186 838 0.533333 0.368627 0.313726 255 255 255 255 
-58.2196 18.9186 838 0.529412 0.364706 0.309804 255 255 255 255 
-56.5109 18.8734 836 0.529412 0.360784 0.305882 255 255 255 255 
-54.9412 18.8734 836 0.529412 0.360784 0.305882 255 255 255 255 
-53.2438 18.8283 834 0.52549 0.352941 0.298039 255 255 255 255 
-51.5538 18.7831 832 0.52549 0.360784 0.290196 255 255 255 255 
-49.6311 18.6477 826 0.529412 0.368627 0.301961 255 255 255 255 
-47.9637 18.6025 824 0.533333 0.376471 0.313726 255 255 255 255 
-46.3038 18.5574 822 0.537255 0.388235 0.309804 255 255 255 255 
-44.7604 18.5574 822 0.529412 0.376471 0.305882 255 255 255 255 
-43.2169 18.5574 822 0.521569 0.372549 0.301961 255 255 255 255 
-41.6735 18.5574 822 0.521569 0.368627 0.301961 255 255 255 255 
-40.13 18.5574 822 0.521569 0.376471 0.305882 255 255 255 255 
-38.5865 18.5574 822 0.52549 0.368627 0.309804 255 255 255 255 
-37.043 18.5574 822 0.52549 0.368627 0.309804 255 255 255 255 
-35.4996 18.5574 822 0.529412 0.368627 0.309804 255 255 255 255 
-33.9561 18.5574 822 0.533333 0.368627 0.309804 255 255 255 255 
-32.4127 18.5574 822 0.537255 0.368627 0.309804 255 255 255 255 
-30.8692 18.5574 822 0.537255 0.368627 0.313726 255 255 255 255 
-29.2544 18.5122 820 0.537255 0.372549 0.317647 255 255 255 255 
-27.7147 18.5122 820 0.54902 0.368627 0.321569 255 255 255 255 
-26.175 18.5122 820 0.564706 0.372549 0.313726 255 255 255 255 
-24.6353 18.5122 820 0.54902 0.376471 0.309804 255 255 255 255 
-23.0956 18.5122 820 0.537255 0.380392 0.309804 255 255 255 255 
-21.5559 18.5122 820 0.545098 0.380392 0.313726 255 255 255 255 
-20.0162 18.5122 820 0.552941 0.380392 0.294118 255 255 255 255 
-18.4765 18.5122 820 0.552941 0.380392 0.294118 255 255 255 255 
-16.9368 18.5122 820 0.545098 0.380392 0.278431 255 255 255 255 
-15.3971 18.5122 820 0.533333 0.380392 0.301961 255 255 255 255 
-13.8573 18.5122 820 0.533333 0.384314 0.32549 255 255 255 255 
-12.3176 18.5122 820 0.537255 0.388235 0.321569 255 255 255 255 
-10.7779 18.5122 820 0.541176 0.392157 0.317647 255 255 255 255 
-9.23824 18.5122 820 0.54902 0.392157 0.309804 255 255 255 255 
-7.7173 18.5574 822 0.533333 0.384314 0.305882 255 255 255 255 
-6.17384 18.5574 822 0.521569 0.376471 0.313726 255 255 255 255 
-4.63037 18.5574 822 0.517647 0.372549 0.32549 255 255 255 255 
-3.09444 18.6025 824 0.513726 0.364706 0.317647 255 255 255 255 
-1.54722 18.6025 824 0.513726 0.364706 0.317647 255 255 255 255 
0 18.6025 824 0.505882 0.356863 0.313726 255 255 255 255 
1.54719 18.6025 824 0.501961 0.356863 0.309804 255 255 255 255 
3.10195 18.6477 826 0.494118 0.34902 0.305882 255 255 255 255 
4.6529 18.6477 826 0.486275 0.345098 0.294118 255 255 255 255 
6.21893 18.6928 828 0.478431 0.329412 0.286275 255 255 255 255 
7.79241 18.738 830 0.47451 0.321569 0.262745 255 255 255 255 
9.35087 18.738 830 0.443137 0.317647 0.239216 255 255 255 255 
10.9357 18.7831 832 0.415686 0.321569 0.2 255 255 255 255 
12.4979 18.7831 832 0.396078 0.290196 0.164706 255 255 255 255 
14.094 18.8283 834 0.380392 0.25098 0.168627 255 255 255 255 
15.6599 18.8283 834 0.360784 0.231373 0.172549 255 255 255 255 
17.2672 18.8734 836 0.360784 0.231373 0.172549 255 255 255 255 
18.8821 18.9186 838 0.345098 0.235294 0.160784 255 255 255 255 
20.5044 18.9637 840 0.337255 0.235294 0.152941 255 255 255 255 
22.0816 18.9637 840 0.329412 0.262745 0.129412 255 255 255 255 
23.7152 19.0089 842 0.294118 0.227451 0.109804 255 255 255 255 
25.2962 19.0089 842 0.262745 0.164706 0.109804 255 255 255 255 
27.0049 19.0992 846 0.211765 0.105882 0.109804 255 255 255 255 
28.5934 19.0992 846 0.160784 0.0431373 0.0745098 255 255 255 255 
30.182 19.0992 846 0.12549 0.0431373 0.0392157 255 255 255 255 
31.8832 19.1669 849 0.0862745 0.054902 0.0470588 255 255 255 255 
33.4773 19.1669 849 0.0745098 0.0509804 0.054902 255 255 255 255 
35.0715 19.1669 849 0.0627451 0.054902 0.054902 255 255 255 255 
36.5361 19.0992 846 0.0627451 0.054902 0.054902 255 255 255 255 
38.1246 19.0992 846 0.0588235 0.054902 0.054902 255 255 255 255 
39.7131 19.0992 846 0.054902 0.054902 0.054902 255 255 255 255 
41.4481 19.1669 849 0.0470588 0.0509804 0.054902 255 255 255 255 
-100.909 18.2319 881 0.568627 0.392157 0.364706 255 255 255 255 
-99.0293 18.1905 879 0.576471 0.403922 0.356863 255 255 255 255 
-97.3788 18.1905 879 0.576471 0.403922 0.356863 255 255 255 255 
-95.5105 18.1491 877 0.572549 0.407843 0.34902 255 255 255 255 
-83.1216 17.9629 868 0.6 0.431373 0.364706 255 255 255 255 
-78.6658 17.6938 855 0.6 0.458824 0.392157 255 255 255 255 
-77.0604 17.6938 855 0.6 0.443137 0.388235 255 255 255 255 
-75.2785 17.6525 853 0.6 0.443137 0.388235 255 255 255 255 
-73.504 17.6111 851 0.592157 0.439216 0.384314 255 255 255 255 
-71.7371 17.5697 849 0.584314 0.435294 0.368627 255 255 255 255 
-70.143 17.5697 849 0.576471 0.439216 0.356863 255 255 255 255 
-68.1451 17.4662 844 0.568627 0.423529 0.345098 255 255 255 255 
-66.4026 17.4248 842 0.560784 0.415686 0.337255 255 255 255 255 
-64.8216 17.4248 842 0.552941 0.396078 0.329412 255 255 255 255 
-63.2406 17.4248 842 0.545098 0.384314 0.32549 255 255 255 255 
-61.5131 17.3834 840 0.541176 0.372549 0.321569 255 255 255 255 
-59.7931 17.342 838 0.533333 0.368627 0.317647 255 255 255 255 
-58.2196 17.342 838 0.529412 0.360784 0.309804 255 255 255 255 
-56.5109 17.3006 836 0.529412 0.360784 0.309804 255 255 255 255 
-54.9412 17.3006 836 0.52549 0.356863 0.305882 255 255 255 255 
-53.2438 17.2593 834 0.521569 0.356863 0.301961 255 255 255 255 
-51.5538 17.2179 832 0.521569 0.360784 0.294118 255 255 255 255 
-49.6311 17.0937 826 0.52549 0.368627 0.301961 255 255 255 255 
-47.9637 17.0523 824 0.533333 0.372549 0.305882 255 255 255 255 
-46.4165 17.0523 824 0.541176 0.372549 0.305882 255 255 255 255 
-44.7604 17.0109 822 0.533333 0.376471 0.309804 255 255 255 255 
-43.2169 17.0109 822 0.52549 0.368627 0.305882 255 255 255 255 
-41.6735 17.0109 822 0.521569 0.372549 0.305882 255 255 255 255 
-40.13 17.0109 822 0.517647 0.372549 0.313726 255 255 255 255 
-38.5865 17.0109 822 0.521569 0.380392 0.317647 255 255 255 255 
-37.1332 17.0523 824 0.521569 0.380392 0.317647 255 255 255 255 
-35.4996 17.0109 822 0.529412 0.372549 0.313726 255 255 255 255 
-33.9561 17.0109 822 0.533333 0.380392 0.309804 255 255 255 255 
-32.4127 17.0109 822 0.541176 0.376471 0.309804 255 255 255 255 
-30.8692 17.0109 822 0.541176 0.384314 0.309804 255 255 255 255 
-29.2544 16.9695 820 0.541176 0.376471 0.309804 255 255 255 255 
-27.7147 16.9695 820 0.560784 0.376471 0.313726 255 255 255 255 
-26.175 16.9695 820 0.580392 0.372549 0.309804 255 255 255 255 
-24.6353 16.9695 820 0.556863 0.376471 0.305882 255 255 255 255 
-23.0956 16.9695 820 0.537255 0.376471 0.305882 255 255 255 255 
-21.5559 16.9695 820 0.533333 0.380392 0.309804 255 255 255 255 
-20.0162 16.9695 820 0.533333 0.372549 0.301961 255 255 255 255 
-18.4765 16.9695 820 0.533333 0.372549 0.301961 255 255 255 255 
-16.9368 16.9695 820 0.52549 0.372549 0.298039 255 255 255 255 
-15.3971 16.9695 820 0.521569 0.368627 0.309804 255 255 255 255 
-13.8573 16.9695 820 0.521569 0.372549 0.321569 255 255 255 255 
-12.3176 16.9695 820 0.52549 0.376471 0.313726 255 255 255 255 
-10.7779 16.9695 820 0.52549 0.380392 0.309804 255 255 255 255 
-9.23824 16.9695 820 0.529412 0.380392 0.309804 255 255 255 255 
-7.69853 16.9695 820 0.521569 0.384314 0.309804 255 255 255 255 
-6.15882 16.9695 820 0.513726 0.372549 0.321569 255 255 255 255 
-4.6191 16.9695 820 0.509804 0.368627 0.337255 255 255 255 255 
-3.08693 17.0109 822 0.509804 0.364706 0.32549 255 255 255 255 
-1.54347 17.0109 822 0.509804 0.364706 0.32549 255 255 255 255 
0 17.0523 824 0.501961 0.360784 0.317647 255 255 255 255 
1.54719 17.0523 824 0.498039 0.360784 0.309804 255 255 255 255 
3.09444 17.0523 824 0.490196 0.356863 0.305882 255 255 255 255 
4.6529 17.0937 826 0.486275 0.345098 0.294118 255 255 255 255 
6.20391 17.0937 826 0.490196 0.337255 0.286275 255 255 255 255 
7.77363 17.1351 828 0.498039 0.337255 0.262745 255 255 255 255 
9.32834 17.1351 828 0.470588 0.333333 0.243137 255 255 255 255 
10.9094 17.1765 830 0.443137 0.329412 0.211765 255 255 255 255 
12.4678 17.1765 830 0.427451 0.32549 0.184314 255 255 255 255 
14.0602 17.2179 832 0.411765 0.286275 0.180392 255 255 255 255 
15.6599 17.2593 834 0.392157 0.254902 0.180392 255 255 255 255 
17.2259 17.2593 834 0.392157 0.254902 0.180392 255 255 255 255 
18.837 17.3006 836 0.372549 0.254902 0.172549 255 255 255 255 
20.4555 17.342 838 0.364706 0.243137 0.164706 255 255 255 255 
22.0816 17.3834 840 0.356863 0.254902 0.152941 255 255 255 255 
23.7152 17.4248 842 0.329412 0.254902 0.141176 255 255 255 255 
25.2962 17.4248 842 0.305882 0.211765 0.117647 255 255 255 255 
26.9411 17.4662 844 0.254902 0.176471 0.0941176 255 255 255 255 
28.5258 17.4662 844 0.207843 0.0901961 0.0745098 255 255 255 255 
30.1107 17.4662 844 0.152941 0.0431373 0.054902 255 255 255 255 
31.8832 17.5697 849 0.101961 0.0588235 0.054902 255 255 255 255 
33.4773 17.5697 849 0.0862745 0.054902 0.054902 255 255 255 255 
34.9476 17.5076 846 0.0745098 0.054902 0.054902 255 255 255 255 
36.5361 17.5076 846 0.0745098 0.054902 0.054902 255 255 255 255 
38.0345 17.4662 844 0.0627451 0.054902 0.054902 255 255 255 255 
39.6192 17.4662 844 0.054902 0.054902 0.0627451 255 255 255 255 
41.3016 17.5076 846 0.0470588 0.054902 0.0705882 255 255 255 255 
42.8902 17.5076 846 0.0392157 0.0470588 0.054902 255 255 255 255 
44.6364 17.5697 849 0.0627451 0.0392157 0.0431373 255 255 255 255 
46.2306 17.5697 849 0.0901961 0.0235294 0.027451 255 255 255 255 
48.0501 17.6525 853 0.109804 0.0156863 0.0117647 255 255 255 255 
49.8845 17.7352 857 0.129412 0.184314 0.141176 255 255 255 255 
-102.796 16.6121 883 0.560784 0.4 0.341176 255 255 255 255 
-100.909 16.5745 881 0.576471 0.403922 0.34902 255 255 255 255 
-99.2547 16.5745 881 0.588235 0.415686 0.345098 255 255 255 255 
-97.3788 16.5368 879 0.588235 0.415686 0.345098 255 255 255 255 
-95.5105 16.4992 877 0.576471 0.415686 0.341176 255 255 255 255 
-93.5427 16.4428 874 0.568627 0.419608 0.341176 255 255 255 255 
-86.3812 16.3299 868 0.572549 0.435294 0.368627 255 255 255 255 
-84.7514 16.3299 868 0.576471 0.431373 0.364706 255 255 255 255 
-78.6658 16.0853 855 0.580392 0.435294 0.376471 255 255 255 255 
-77.0604 16.0853 855 0.576471 0.427451 0.380392 255 255 255 255 
-75.2785 16.0477 853 0.576471 0.427451 0.380392 255 255 255 255 
-73.504 16.0101 851 0.568627 0.431373 0.384314 255 255 255 255 
-71.9061 16.0101 851 0.560784 0.435294 0.368627 255 255 255 255 
-70.143 15.9724 849 0.552941 0.419608 0.352941 255 255 255 255 
-68.1451 15.8784 844 0.545098 0.419608 0.341176 255 255 255 255 
-66.4026 15.8407 842 0.541176 0.4 0.329412 255 255 255 255 
-64.8216 15.8407 842 0.537255 0.384314 0.329412 255 255 255 255 
-63.0904 15.8031 840 0.533333 0.372549 0.333333 255 255 255 255 
-61.3666 15.7655 838 0.529412 0.364706 0.32549 255 255 255 255 
-59.6504 15.7279 836 0.52549 0.364706 0.321569 255 255 255 255 
-58.0807 15.7279 836 0.521569 0.360784 0.313726 255 255 255 255 
-56.3758 15.6902 834 0.521569 0.360784 0.313726 255 255 255 255 
-54.8098 15.6902 834 0.521569 0.360784 0.309804 255 255 255 255 
-53.1161 15.6526 832 0.521569 0.360784 0.305882 255 255 255 255 
-51.4299 15.615 830 0.521569 0.364706 0.301961 255 255 255 255 
-49.6311 15.5397 826 0.521569 0.372549 0.301961 255 255 255 255 
-47.9637 15.5021 824 0.529412 0.368627 0.301961 255 255 255 255 
-46.4165 15.5021 824 0.533333 0.360784 0.305882 255 255 255 255 
-44.8693 15.5021 824 0.52549 0.364706 0.313726 255 255 255 255 
-43.2169 15.4645 822 0.521569 0.364706 0.313726 255 255 255 255 
-41.6735 15.4645 822 0.509804 0.368627 0.313726 255 255 255 255 
-40.13 15.4645 822 0.501961 0.364706 0.321569 255 255 255 255 
-38.5865 15.4645 822 0.513726 0.364706 0.329412 255 255 255 255 
-37.1332 15.5021 824 0.513726 0.364706 0.329412 255 255 255 255 
-35.586 15.5021 824 0.52549 0.372549 0.321569 255 255 255 255 
-33.9561 15.4645 822 0.529412 0.376471 0.313726 255 255 255 255 
-32.4127 15.4645 822 0.537255 0.380392 0.309804 255 255 255 255 
-30.7941 15.4268 820 0.533333 0.376471 0.305882 255 255 255 255 
-29.183 15.3892 818 0.533333 0.372549 0.305882 255 255 255 255 
-27.6471 15.3892 818 0.545098 0.368627 0.305882 255 255 255 255 
-26.1112 15.3892 818 0.556863 0.364706 0.301961 255 255 255 255 
-24.6353 15.4268 820 0.541176 0.368627 0.301961 255 255 255 255 
-23.0392 15.3892 818 0.52549 0.376471 0.301961 255 255 255 255 
-21.5033 15.3892 818 0.52549 0.368627 0.305882 255 255 255 255 
-19.9673 15.3892 818 0.52549 0.364706 0.313726 255 255 255 255 
-18.4314 15.3892 818 0.52549 0.364706 0.313726 255 255 255 255 
-16.9368 15.4268 820 0.517647 0.360784 0.321569 255 255 255 255 
-15.3971 15.4268 820 0.513726 0.360784 0.317647 255 255 255 255 
-13.8573 15.4268 820 0.513726 0.364706 0.317647 255 255 255 255 
-12.3176 15.4268 820 0.513726 0.364706 0.309804 255 255 255 255 
-10.7779 15.4268 820 0.517647 0.368627 0.301961 255 255 255 255 
-9.23824 15.4268 820 0.517647 0.368627 0.305882 255 255 255 255 
-7.69853 15.4268 820 0.513726 0.368627 0.313726 255 255 255 255 
-6.15882 15.4268 820 0.509804 0.368627 0.333333 255 255 255 255 
-4.6191 15.4268 820 0.505882 0.364706 0.352941 255 255 255 255 
-3.08693 15.4645 822 0.501961 0.364706 0.337255 255 255 255 255 
-1.54347 15.4645 822 0.501961 0.364706 0.337255 255 255 255 255 
0 15.4645 822 0.498039 0.364706 0.321569 255 255 255 255 
1.54344 15.4645 822 0.494118 0.368627 0.313726 255 255 255 255 
3.09444 15.5021 824 0.486275 0.360784 0.305882 255 255 255 255 
4.64164 15.5021 824 0.478431 0.352941 0.294118 255 255 255 255 
6.20391 15.5397 826 0.478431 0.34902 0.286275 255 255 255 255 
7.75486 15.5397 826 0.482353 0.360784 0.266667 255 255 255 255 
9.30581 15.5397 826 0.466667 0.34902 0.25098 255 255 255 255 
10.8831 15.5774 828 0.447059 0.341176 0.227451 255 255 255 255 
12.4678 15.615 830 0.435294 0.329412 0.203922 255 255 255 255 
14.0602 15.6526 832 0.423529 0.313726 0.196078 255 255 255 255 
15.6224 15.6526 832 0.403922 0.294118 0.192157 255 255 255 255 
17.2259 15.6902 834 0.403922 0.294118 0.192157 255 255 255 255 
18.837 15.7279 836 0.388235 0.290196 0.184314 255 255 255 255 
20.4067 15.7279 836 0.380392 0.270588 0.176471 255 255 255 255 
22.0291 15.7655 838 0.372549 0.266667 0.176471 255 255 255 255 
23.6589 15.8031 840 0.34902 0.262745 0.176471 255 255 255 255 
25.2361 15.8031 840 0.32549 0.262745 0.129412 255 255 255 255 
26.8773 15.8407 842 0.290196 0.2 0.0823529 255 255 255 255 
28.4582 15.8407 842 0.254902 0.101961 0.0745098 255 255 255 255 
30.1107 15.8784 844 0.188235 0.0823529 0.0705882 255 255 255 255 
31.6954 15.8784 844 0.12549 0.0862745 0.0627451 255 255 255 255 
33.359 15.916 846 0.0901961 0.0627451 0.0588235 255 255 255 255 
34.9476 15.916 846 0.0588235 0.054902 0.054902 255 255 255 255 
36.5361 15.916 846 0.0588235 0.054902 0.054902 255 255 255 255 
38.0345 15.8784 844 0.054902 0.0509804 0.054902 255 255 255 255 
39.6192 15.8784 844 0.054902 0.0588235 0.0705882 255 255 255 255 
41.3016 15.916 846 0.0470588 0.0509804 0.0862745 255 255 255 255 
42.8902 15.916 846 0.0392157 0.0470588 0.0705882 255 255 255 255 
44.6364 15.9724 849 0.0666667 0.0352941 0.054902 255 255 255 255 
-102.796 14.9509 883 0.564706 0.4 0.333333 255 255 255 255 
-100.909 14.917 881 0.576471 0.403922 0.34902 255 255 255 255 
-99.0293 14.8831 879 0.588235 0.415686 0.345098 255 255 255 255 
-97.1573 14.8493 877 0.588235 0.415686 0.345098 255 255 255 255 
-95.5105 14.8493 877 0.576471 0.415686 0.341176 255 255 255 255 
-93.5427 14.7985 874 0.568627 0.419608 0.341176 255 255 255 255 
-91.9016 14.7985 874 0.568627 0.423529 0.345098 255 255 255 255 
-89.8474 14.7308 870 0.568627 0.431373 0.360784 255 255 255 255 
-88.2138 14.7308 870 0.568627 0.435294 0.376471 255 255 255 255 
-86.5802 14.7308 870 0.572549 0.435294 0.368627 255 255 255 255 
-84.5561 14.663 866 0.584314 0.427451 0.364706 255 255 255 255 
-82.93 14.663 866 0.584314 0.431373 0.364706 255 255 255 255 
-80.459 14.5106 857 0.584314 0.439216 0.368627 255 255 255 255 
-78.8498 14.5106 857 0.580392 0.435294 0.376471 255 255 255 255 
-77.0604 14.4768 855 0.576471 0.427451 0.380392 255 255 255 255 
-75.2785 14.4429 853 0.552941 0.415686 0.368627 255 255 255 255 
-73.6768 14.4429 853 0.545098 0.423529 0.364706 255 255 255 255 
-71.9061 14.4091 851 0.541176 0.407843 0.352941 255 255 255 255 
-70.143 14.3752 849 0.533333 0.388235 0.345098 255 255 255 255 
-68.1451 14.2905 844 0.52549 0.384314 0.333333 255 255 255 255 
-66.4026 14.2567 842 0.52549 0.380392 0.32549 255 255 255 255 
-64.6676 14.2228 840 0.52549 0.372549 0.321569 255 255 255 255 
-62.9401 14.1889 838 0.521569 0.368627 0.317647 255 255 255 255 
-61.2202 14.1551 836 0.521569 0.364706 0.313726 255 255 255 255 
-59.5077 14.1212 834 0.517647 0.368627 0.309804 255 255 255 255 
-57.9417 14.1212 834 0.517647 0.360784 0.301961 255 255 255 255 
-56.2406 14.0873 832 0.517647 0.360784 0.301961 255 255 255 255 
-54.6783 14.0873 832 0.517647 0.364706 0.298039 255 255 255 255 
-52.9884 14.0535 830 0.521569 0.364706 0.294118 255 255 255 255 
-51.306 14.0196 828 0.521569 0.372549 0.294118 255 255 255 255 
-49.6311 13.9858 826 0.521569 0.368627 0.298039 255 255 255 255 
-47.9637 13.9519 824 0.52549 0.372549 0.301961 255 255 255 255 
-46.4165 13.9519 824 0.529412 0.364706 0.305882 255 255 255 255 
-44.8693 13.9519 824 0.521569 0.368627 0.309804 255 255 255 255 
-43.2169 13.918 822 0.517647 0.364706 0.309804 255 255 255 255 
-41.6735 13.918 822 0.501961 0.372549 0.309804 255 255 255 255 
-40.13 13.918 822 0.486275 0.356863 0.301961 255 255 255 255 
-38.5865 13.918 822 0.501961 0.345098 0.298039 255 255 255 255 
-37.1332 13.9519 824 0.501961 0.345098 0.298039 255 255 255 255 
-35.4996 13.918 822 0.521569 0.360784 0.301961 255 255 255 255 
-33.9561 13.918 822 0.52549 0.372549 0.309804 255 255 255 255 
-32.3338 13.8842 820 0.533333 0.372549 0.301961 255 255 255 255 
-30.719 13.8503 818 0.529412 0.372549 0.298039 255 255 255 255 
-29.183 13.8503 818 0.52549 0.368627 0.298039 255 255 255 255 
-27.6471 13.8503 818 0.529412 0.368627 0.301961 255 255 255 255 
-26.1112 13.8503 818 0.533333 0.360784 0.298039 255 255 255 255 
-24.5752 13.8503 818 0.52549 0.364706 0.298039 255 255 255 255 
-23.0392 13.8503 818 0.517647 0.360784 0.301961 255 255 255 255 
-21.5033 13.8503 818 0.517647 0.364706 0.309804 255 255 255 255 
-19.9673 13.8503 818 0.517647 0.356863 0.309804 255 255 255 255 
-18.4314 13.8503 818 0.517647 0.356863 0.309804 255 255 255 255 
-16.8955 13.8503 818 0.509804 0.356863 0.313726 255 255 255 255 
-15.3595 13.8503 818 0.505882 0.356863 0.309804 255 255 255 255 
-13.8235 13.8503 818 0.505882 0.360784 0.305882 255 255 255 255 
-12.2876 13.8503 818 0.505882 0.356863 0.301961 255 255 255 255 
-10.7517 13.8503 818 0.505882 0.364706 0.301961 255 255 255 255 
-9.21571 13.8503 818 0.509804 0.360784 0.301961 255 255 255 255 
-7.69853 13.8842 820 0.505882 0.364706 0.305882 255 255 255 255 
-6.15882 13.8842 820 0.505882 0.360784 0.317647 255 255 255 255 
-4.6191 13.8842 820 0.501961 0.360784 0.329412 255 255 255 255 
-3.07942 13.8842 820 0.498039 0.360784 0.321569 255 255 255 255 
-1.54347 13.918 822 0.498039 0.360784 0.321569 255 255 255 255 
0 13.918 822 0.494118 0.376471 0.309804 255 255 255 255 
1.54344 13.918 822 0.490196 0.360784 0.305882 255 255 255 255 
3.09444 13.9519 824 0.478431 0.364706 0.298039 255 255 255 255 
4.64164 13.9519 824 0.470588 0.352941 0.290196 255 255 255 255 
6.18889 13.9519 824 0.470588 0.356863 0.278431 255 255 255 255 
7.75486 13.9858 826 0.470588 0.352941 0.266667 255 255 255 255 
9.30581 13.9858 826 0.462745 0.360784 0.254902 255 255 255 255 
10.8568 13.9858 826 0.454902 0.345098 0.25098 255 255 255 255 
12.4378 14.0196 828 0.443137 0.345098 0.25098 255 255 255 255 
14.0264 14.0535 830 0.435294 0.32549 0.235294 255 255 255 255 
15.6224 14.0873 832 0.419608 0.321569 0.223529 255 255 255 255 
17.1846 14.0873 832 0.419608 0.321569 0.223529 255 255 255 255 
18.7919 14.1212 834 0.403922 0.298039 0.215686 255 255 255 255 
20.4067 14.1551 836 0.396078 0.282353 0.207843 255 255 255 255 
21.9765 14.1551 836 0.392157 0.278431 0.192157 255 255 255 255 
23.6026 14.1889 838 0.368627 0.270588 0.180392 255 255 255 255 
25.2361 14.2228 840 0.34902 0.270588 0.14902 255 255 255 255 
26.8134 14.2228 840 0.32549 0.266667 0.117647 255 255 255 255 
28.4582 14.2567 842 0.301961 0.164706 0.0941176 255 255 255 255 
30.0393 14.2567 842 0.223529 0.0980392 0.0745098 255 255 255 255 
31.6954 14.2905 844 0.14902 0.0745098 0.0705882 255 255 255 255 
33.359 14.3244 846 0.0941176 0.054902 0.0705882 255 255 255 255 
34.9476 14.3244 846 0.0431373 0.0509804 0.0627451 255 255 255 255 
36.5361 14.3244 846 0.0431373 0.0509804 0.0627451 255 255 255 255 
38.1246 14.3244 846 0.0509804 0.0431373 0.054902 255 255 255 255 
39.7131 14.3244 846 0.0588235 0.0470588 0.0627451 255 255 255 255 
41.3016 14.3244 846 0.0470588 0.054902 0.0705882 255 255 255 255 
42.8902 14.3244 846 0.0392157 0.0470588 0.0509804 255 255 255 255 
44.6364 14.3752 849 0.0705882 0.0470588 0.0352941 255 255 255 255 
-106.112 13.2897 883 0.54902 0.388235 0.313726 255 255 255 255 
-104.217 13.2596 881 0.560784 0.396078 0.329412 255 255 255 255 
-102.563 13.2596 881 0.572549 0.4 0.352941 255 255 255 255 
-100.909 13.2596 881 0.588235 0.415686 0.376471 255 255 255 255 
-99.0293 13.2295 879 0.603922 0.427451 0.360784 255 255 255 255 
-97.1573 13.1994 877 0.603922 0.427451 0.360784 255 255 255 255 
-95.5105 13.1994 877 0.584314 0.431373 0.345098 255 255 255 255 
-93.8638 13.1994 877 0.564706 0.427451 0.341176 255 255 255 255 
-91.9016 13.1542 874 0.560784 0.439216 0.341176 255 255 255 255 
-90.054 13.1241 872 0.560784 0.435294 0.34902 255 255 255 255 
-88.4166 13.1241 872 0.560784 0.439216 0.356863 255 255 255 255 
-86.3812 13.0639 868 0.560784 0.431373 0.352941 255 255 255 255 
-84.7514 13.0639 868 0.564706 0.443137 0.352941 255 255 255 255 
-83.1216 13.0639 868 0.568627 0.427451 0.356863 255 255 255 255 
-80.2712 12.8683 855 0.568627 0.419608 0.364706 255 255 255 255 
-78.6658 12.8683 855 0.560784 0.423529 0.368627 255 255 255 255 
-76.8801 12.8382 853 0.552941 0.415686 0.368627 255 255 255 255 
-75.2785 12.8382 853 0.552941 0.415686 0.368627 255 255 255 255 
-73.504 12.8081 851 0.545098 0.423529 0.364706 255 255 255 255 
-71.7371 12.778 849 0.541176 0.407843 0.352941 255 255 255 255 
-69.8951 12.7328 846 0.533333 0.388235 0.345098 255 255 255 255 
-67.9836 12.6726 842 0.52549 0.384314 0.333333 255 255 255 255 
-66.2449 12.6425 840 0.52549 0.380392 0.32549 255 255 255 255 
-64.5137 12.6124 838 0.52549 0.372549 0.321569 255 255 255 255 
-62.7899 12.5823 836 0.521569 0.368627 0.317647 255 255 255 255 
-61.0737 12.5522 834 0.521569 0.364706 0.313726 255 255 255 255 
-59.365 12.5221 832 0.517647 0.368627 0.309804 255 255 255 255 
-57.8028 12.5221 832 0.517647 0.360784 0.301961 255 255 255 255 
-56.1054 12.492 830 0.517647 0.360784 0.301961 255 255 255 255 
-54.5469 12.492 830 0.517647 0.364706 0.298039 255 255 255 255 
-52.9884 12.492 830 0.521569 0.364706 0.294118 255 255 255 255 
-51.306 12.4619 828 0.521569 0.372549 0.294118 255 255 255 255 
-49.6311 12.4318 826 0.513726 0.364706 0.294118 255 255 255 255 
-47.9637 12.4017 824 0.513726 0.360784 0.301961 255 255 255 255 
-46.4165 12.4017 824 0.517647 0.356863 0.305882 255 255 255 255 
-44.8693 12.4017 824 0.513726 0.356863 0.309804 255 255 255 255 
-43.322 12.4017 824 0.513726 0.360784 0.309804 255 255 255 255 
-41.7748 12.4017 824 0.505882 0.356863 0.309804 255 255 255 255 
-40.2276 12.4017 824 0.498039 0.345098 0.286275 255 255 255 255 
-38.6804 12.4017 824 0.505882 0.34902 0.266667 255 255 255 255 
-37.1332 12.4017 824 0.505882 0.34902 0.266667 255 255 255 255 
-35.4996 12.3716 822 0.517647 0.360784 0.286275 255 255 255 255 
-33.8735 12.3415 820 0.517647 0.364706 0.305882 255 255 255 255 
-32.3338 12.3415 820 0.521569 0.368627 0.298039 255 255 255 255 
-30.719 12.3114 818 0.517647 0.364706 0.290196 255 255 255 255 
-29.1117 12.2813 816 0.517647 0.364706 0.294118 255 255 255 255 
-27.5795 12.2813 816 0.513726 0.356863 0.298039 255 255 255 255 
-26.1112 12.3114 818 0.513726 0.352941 0.298039 255 255 255 255 
-24.5752 12.3114 818 0.509804 0.34902 0.298039 255 255 255 255 
-23.0392 12.3114 818 0.501961 0.345098 0.305882 255 255 255 255 
-21.5033 12.3114 818 0.501961 0.345098 0.313726 255 255 255 255 
-19.9673 12.3114 818 0.501961 0.341176 0.309804 255 255 255 255 
-18.4314 12.3114 818 0.501961 0.341176 0.309804 255 255 255 255 
-16.8955 12.3114 818 0.498039 0.34902 0.305882 255 255 255 255 
-15.3595 12.3114 818 0.494118 0.356863 0.301961 255 255 255 255 
-13.8235 12.3114 818 0.490196 0.352941 0.298039 255 255 255 255 
-12.2876 12.3114 818 0.490196 0.34902 0.298039 255 255 255 255 
-10.7517 12.3114 818 0.490196 0.34902 0.301961 255 255 255 255 
-9.21571 12.3114 818 0.490196 0.345098 0.301961 255 255 255 255 
-7.69853 12.3415 820 0.486275 0.34902 0.301961 255 255 255 255 
-6.15882 12.3415 820 0.482353 0.34902 0.305882 255 255 255 255 
-4.6191 12.3415 820 0.470588 0.34902 0.309804 255 255 255 255 
-3.07942 12.3415 820 0.462745 0.345098 0.305882 255 255 255 255 
-1.54347 12.3716 822 0.462745 0.345098 0.305882 255 255 255 255 
0 12.3716 822 0.462745 0.34902 0.301961 255 255 255 255 
1.54344 12.3716 822 0.462745 0.345098 0.298039 255 255 255 255 
3.09444 12.4017 824 0.447059 0.341176 0.294118 255 255 255 255 
4.64164 12.4017 824 0.427451 0.337255 0.282353 255 255 255 255 
6.18889 12.4017 824 0.427451 0.333333 0.27451 255 255 255 255 
7.73608 12.4017 824 0.431373 0.337255 0.266667 255 255 255 255 
9.30581 12.4318 826 0.427451 0.337255 0.262745 255 255 255 255 
10.8568 12.4318 826 0.427451 0.333333 0.278431 255 255 255 255 
12.4378 12.4619 828 0.427451 0.337255 0.298039 255 255 255 255 
14.0264 12.492 830 0.427451 0.329412 0.27451 255 255 255 255 
15.6224 12.5221 832 0.419608 0.321569 0.254902 255 255 255 255 
17.1846 12.5221 832 0.419608 0.321569 0.254902 255 255 255 255 
18.7919 12.5522 834 0.415686 0.309804 0.247059 255 255 255 255 
20.3579 12.5522 834 0.403922 0.298039 0.239216 255 255 255 255 
21.9765 12.5823 836 0.396078 0.298039 0.211765 255 255 255 255 
23.6026 12.6124 838 0.380392 0.286275 0.188235 255 255 255 255 
25.2361 12.6425 840 0.364706 0.282353 0.168627 255 255 255 255 
26.8134 12.6425 840 0.34902 0.254902 0.152941 255 255 255 255 
28.4582 12.6726 842 0.333333 0.2 0.113725 255 255 255 255 
30.0393 12.6726 842 0.227451 0.145098 0.0784314 255 255 255 255 
31.6954 12.7027 844 0.12549 0.0666667 0.0784314 255 255 255 255 
33.359 12.7328 846 0.0901961 0.054902 0.0823529 255 255 255 255 
34.9476 12.7328 846 0.054902 0.054902 0.0666667 255 255 255 255 
36.5361 12.7328 846 0.054902 0.054902 0.0666667 255 255 255 255 
38.1246 12.7328 846 0.0588235 0.0431373 0.054902 255 255 255 255 
39.7131 12.7328 846 0.0666667 0.0431373 0.054902 255 255 255 255 
41.3016 12.7328 846 0.0588235 0.0470588 0.054902 255 255 255 255 
42.8902 12.7328 846 0.0509804 0.0392157 0.0352941 255 255 255 255 
44.6364 12.778 849 0.0705882 0.0352941 0.0196078 255 255 255 255 
-109.428 11.6284 883 0.509804 0.364706 0.298039 255 255 255 255 
-107.77 11.6284 883 0.52549 0.376471 0.313726 255 255 255 255 
-105.872 11.6021 881 0.545098 0.376471 0.32549 255 255 255 255 
-104.217 11.6021 881 0.552941 0.392157 0.337255 255 255 255 255 
-102.563 11.6021 881 0.556863 0.396078 0.368627 255 255 255 255 
-100.68 11.5758 879 0.568627 0.423529 0.403922 255 255 255 255 
-99.0293 11.5758 879 0.580392 0.458824 0.376471 255 255 255 255 
-97.1573 11.5494 877 0.580392 0.458824 0.376471 255 255 255 255 
-95.5105 11.5494 877 0.556863 0.423529 0.34902 255 255 255 255 
-93.8638 11.5494 877 0.533333 0.419608 0.341176 255 255 255 255 
-92.2171 11.5494 877 0.537255 0.407843 0.337255 255 255 255 255 
-90.2605 11.5099 874 0.537255 0.431373 0.337255 255 255 255 255 
-88.6194 11.5099 874 0.541176 0.411765 0.337255 255 255 255 255 
-86.9783 11.5099 874 0.541176 0.419608 0.341176 255 255 255 255 
-85.142 11.4836 872 0.545098 0.419608 0.345098 255 255 255 255 
-83.5046 11.4836 872 0.552941 0.415686 0.34902 255 255 255 255 
-80.0835 11.2334 853 0.541176 0.4 0.360784 255 255 255 255 
-78.4818 11.2334 853 0.545098 0.4 0.364706 255 255 255 255 
-76.8801 11.2334 853 0.545098 0.388235 0.356863 255 255 255 255 
-75.102 11.207 851 0.545098 0.388235 0.356863 255 255 255 255 
-73.3313 11.1807 849 0.533333 0.380392 0.34902 255 255 255 255 
-71.7371 11.1807 849 0.521569 0.384314 0.341176 255 255 255 255 
-69.8951 11.1412 846 0.517647 0.372549 0.337255 255 255 255 255 
-67.9836 11.0885 842 0.513726 0.356863 0.329412 255 255 255 255 
-66.2449 11.0622 840 0.513726 0.364706 0.321569 255 255 255 255 
-64.5137 11.0358 838 0.513726 0.360784 0.309804 255 255 255 255 
-62.6397 10.9831 834 0.509804 0.364706 0.301961 255 255 255 255 
-60.9273 10.9568 832 0.505882 0.360784 0.298039 255 255 255 255 
-59.365 10.9568 832 0.505882 0.356863 0.298039 255 255 255 255 
-57.6639 10.9305 830 0.505882 0.34902 0.290196 255 255 255 255 
-55.9702 10.9041 828 0.505882 0.34902 0.290196 255 255 255 255 
-54.4154 10.9041 828 0.509804 0.352941 0.286275 255 255 255 255 
-52.8607 10.9041 828 0.513726 0.364706 0.286275 255 255 255 255 
-51.182 10.8778 826 0.513726 0.360784 0.286275 255 255 255 255 
-49.6311 10.8778 826 0.513726 0.364706 0.294118 255 255 255 255 
-47.9637 10.8515 824 0.513726 0.360784 0.301961 255 255 255 255 
-46.4165 10.8515 824 0.517647 0.356863 0.305882 255 255 255 255 
-44.8693 10.8515 824 0.513726 0.356863 0.309804 255 255 255 255 
-43.322 10.8515 824 0.513726 0.360784 0.309804 255 255 255 255 
-41.7748 10.8515 824 0.505882 0.356863 0.309804 255 255 255 255 
-40.13 10.8251 822 0.498039 0.345098 0.286275 255 255 255 255 
-38.5865 10.8251 822 0.505882 0.34902 0.266667 255 255 255 255 
-37.043 10.8251 822 0.505882 0.34902 0.266667 255 255 255 255 
-35.4132 10.7988 820 0.517647 0.360784 0.286275 255 255 255 255 
-33.8735 10.7988 820 0.517647 0.364706 0.305882 255 255 255 255 
-32.255 10.7724 818 0.521569 0.368627 0.298039 255 255 255 255 
-30.719 10.7724 818 0.517647 0.364706 0.290196 255 255 255 255 
-29.1117 10.7461 816 0.517647 0.364706 0.294118 255 255 255 255 
-27.5795 10.7461 816 0.513726 0.356863 0.298039 255 255 255 255 
-26.1112 10.7724 818 0.498039 0.337255 0.290196 255 255 255 255 
-24.5752 10.7724 818 0.494118 0.333333 0.290196 255 255 255 255 
-23.0392 10.7724 818 0.490196 0.337255 0.298039 255 255 255 255 
-21.5033 10.7724 818 0.486275 0.341176 0.309804 255 255 255 255 
-19.9673 10.7724 818 0.486275 0.341176 0.309804 255 255 255 255 
-18.4314 10.7724 818 0.486275 0.337255 0.309804 255 255 255 255 
-16.8955 10.7724 818 0.486275 0.341176 0.309804 255 255 255 255 
-15.3595 10.7724 818 0.486275 0.341176 0.301961 255 255 255 255 
-13.8235 10.7724 818 0.478431 0.345098 0.294118 255 255 255 255 
-12.2876 10.7724 818 0.47451 0.333333 0.294118 255 255 255 255 
-10.7517 10.7724 818 0.47451 0.337255 0.294118 255 255 255 255 
-9.21571 10.7724 818 0.47451 0.337255 0.294118 255 255 255 255 
-7.69853 10.7988 820 0.466667 0.345098 0.298039 255 255 255 255 
-6.15882 10.7988 820 0.458824 0.341176 0.294118 255 255 255 255 
-4.6191 10.7988 820 0.443137 0.352941 0.290196 255 255 255 255 
-3.07942 10.7988 820 0.431373 0.337255 0.282353 255 255 255 255 
-1.54347 10.8251 822 0.431373 0.337255 0.282353 255 255 255 255 
0 10.8251 822 0.435294 0.337255 0.278431 255 255 255 255 
1.54344 10.8251 822 0.439216 0.337255 0.266667 255 255 255 255 
3.08693 10.8251 822 0.411765 0.329412 0.258824 255 255 255 255 
4.64164 10.8515 824 0.388235 0.298039 0.258824 255 255 255 255 
6.18889 10.8515 824 0.388235 0.305882 0.262745 255 255 255 255 
7.73608 10.8515 824 0.392157 0.301961 0.25098 255 255 255 255 
9.30581 10.8778 826 0.396078 0.321569 0.239216 255 255 255 255 
10.8831 10.9041 828 0.4 0.329412 0.25098 255 255 255 255 
12.4378 10.9041 828 0.407843 0.341176 0.262745 255 255 255 255 
14.0264 10.9305 830 0.419608 0.32549 0.258824 255 255 255 255 
15.5848 10.9305 830 0.423529 0.32549 0.254902 255 255 255 255 
17.1846 10.9568 832 0.423529 0.32549 0.254902 255 255 255 255 
18.7919 10.9831 834 0.427451 0.313726 0.25098 255 255 255 255 
20.3579 10.9831 834 0.415686 0.313726 0.247059 255 255 255 255 
21.9765 11.0095 836 0.403922 0.301961 0.223529 255 255 255 255 
23.5462 11.0095 836 0.392157 0.301961 0.2 255 255 255 255 
25.176 11.0358 838 0.384314 0.286275 0.184314 255 255 255 255 
26.8134 11.0622 840 0.372549 0.278431 0.172549 255 255 255 255 
28.4582 11.0885 842 0.364706 0.239216 0.133333 255 255 255 255 
30.0393 11.0885 842 0.231373 0.219608 0.0941176 255 255 255 255 
31.6954 11.1148 844 0.101961 0.0901961 0.0980392 255 255 255 255 
33.359 11.1412 846 0.0862745 0.0431373 0.101961 255 255 255 255 
34.9476 11.1412 846 0.0862745 0.0431373 0.101961 255 255 255 255 
36.6656 11.1807 849 0.0705882 0.0470588 0.0823529 255 255 255 255 
38.1246 11.1412 846 0.0705882 0.0352941 0.0627451 255 255 255 255 
39.7131 11.1412 846 0.0745098 0.0431373 0.0588235 255 255 255 255 
41.4481 11.1807 849 0.0705882 0.054902 0.054902 255 255 255 255 
43.0423 11.1807 849 0.0666667 0.0431373 0.0392157 255 255 255 255 
44.6364 11.1807 849 0.0745098 0.0392157 0.027451 255 255 255 255 
46.3395 11.207 851 0.0862745 0.0313726 0.0588235 255 255 255 255 
-111.463 10.0011 886 0.509804 0.396078 0.266667 255 255 255 255 
-109.428 9.96724 883 0.509804 0.368627 0.298039 255 255 255 255 
-107.77 9.96724 883 0.52549 0.376471 0.32549 255 255 255 255 
-105.872 9.94466 881 0.545098 0.384314 0.333333 255 255 255 255 
-104.217 9.94466 881 0.545098 0.403922 0.341176 255 255 255 255 
-102.33 9.92208 879 0.545098 0.411765 0.356863 255 255 255 255 
-100.451 9.89951 877 0.54902 0.423529 0.372549 255 255 255 255 
-98.804 9.89951 877 0.556863 0.415686 0.352941 255 255 255 255 
-97.1573 9.89951 877 0.556863 0.415686 0.352941 255 255 255 255 
-95.5105 9.89951 877 0.529412 0.392157 0.337255 255 255 255 255 
-93.8638 9.89951 877 0.505882 0.372549 0.333333 255 255 255 255 
-92.2171 9.89951 877 0.509804 0.352941 0.32549 255 255 255 255 
-90.2605 9.86564 874 0.517647 0.364706 0.329412 255 255 255 255 
-88.6194 9.86564 874 0.521569 0.356863 0.329412 255 255 255 255 
-86.7793 9.84307 872 0.52549 0.380392 0.32549 255 255 255 255 
-85.142 9.84307 872 0.529412 0.403922 0.32549 255 255 255 255 
-82.2597 9.69633 859 0.52549 0.415686 0.341176 255 255 255 255 
-80.0835 9.6286 853 0.517647 0.4 0.337255 255 255 255 255 
-78.4818 9.6286 853 0.529412 0.396078 0.337255 255 255 255 255 
-76.6998 9.60602 851 0.529412 0.396078 0.337255 255 255 255 255 
-74.9254 9.58345 849 0.541176 0.360784 0.333333 255 255 255 255 
-73.3313 9.58345 849 0.521569 0.333333 0.329412 255 255 255 255 
-71.4836 9.54958 846 0.505882 0.352941 0.32549 255 255 255 255 
-69.7299 9.52701 844 0.501961 0.368627 0.321569 255 255 255 255 
-67.9836 9.50443 842 0.501961 0.352941 0.317647 255 255 255 255 
-66.0872 9.45928 838 0.501961 0.360784 0.313726 255 255 255 255 
-64.3597 9.4367 836 0.505882 0.356863 0.305882 255 255 255 255 
-62.6397 9.41413 834 0.498039 0.368627 0.301961 255 255 255 255 
-60.9273 9.39155 832 0.494118 0.352941 0.301961 255 255 255 255 
-59.365 9.39155 832 0.494118 0.352941 0.298039 255 255 255 255 
-57.6639 9.36898 830 0.494118 0.341176 0.290196 255 255 255 255 
-55.9702 9.3464 828 0.494118 0.341176 0.290196 255 255 255 255 
-54.4154 9.3464 828 0.498039 0.345098 0.286275 255 255 255 255 
-52.8607 9.3464 828 0.505882 0.345098 0.282353 255 255 255 255 
-51.306 9.3464 828 0.505882 0.34902 0.278431 255 255 255 255 
-49.6311 9.32382 826 0.505882 0.34902 0.290196 255 255 255 255 
-47.9637 9.30125 824 0.505882 0.34902 0.301961 255 255 255 255 
-46.4165 9.30125 824 0.509804 0.352941 0.301961 255 255 255 255 
-44.8693 9.30125 824 0.509804 0.352941 0.305882 255 255 255 255 
-43.2169 9.27867 822 0.509804 0.34902 0.305882 255 255 255 255 
-41.6735 9.27867 822 0.509804 0.352941 0.301961 255 255 255 255 
-40.0323 9.2561 820 0.509804 0.34902 0.294118 255 255 255 255 
-38.4926 9.2561 820 0.509804 0.356863 0.282353 255 255 255 255 
-36.9529 9.2561 820 0.509804 0.356863 0.282353 255 255 255 255 
-35.4132 9.2561 820 0.513726 0.352941 0.294118 255 255 255 255 
-33.8735 9.2561 820 0.513726 0.356863 0.309804 255 255 255 255 
-32.255 9.23352 818 0.513726 0.356863 0.298039 255 255 255 255 
-30.719 9.23352 818 0.509804 0.356863 0.290196 255 255 255 255 
-29.1117 9.21094 816 0.509804 0.34902 0.290196 255 255 255 255 
-27.5795 9.21094 816 0.501961 0.345098 0.290196 255 255 255 255 
-26.1112 9.23352 818 0.498039 0.337255 0.290196 255 255 255 255 
-24.5752 9.23352 818 0.494118 0.333333 0.290196 255 255 255 255 
-23.0392 9.23352 818 0.490196 0.337255 0.298039 255 255 255 255 
-21.5033 9.23352 818 0.486275 0.341176 0.309804 255 255 255 255 
-19.9673 9.23352 818 0.486275 0.341176 0.309804 255 255 255 255 
-18.4314 9.23352 818 0.486275 0.337255 0.309804 255 255 255 255 
-16.8955 9.23352 818 0.486275 0.341176 0.309804 255 255 255 255 
-15.3595 9.23352 818 0.486275 0.341176 0.301961 255 255 255 255 
-13.8235 9.23352 818 0.478431 0.345098 0.294118 255 255 255 255 
-12.2876 9.23352 818 0.47451 0.333333 0.294118 255 255 255 255 
-10.7517 9.23352 818 0.47451 0.337255 0.294118 255 255 255 255 
-9.21571 9.23352 818 0.47451 0.337255 0.294118 255 255 255 255 
-7.67975 9.23352 818 0.466667 0.345098 0.298039 255 255 255 255 
-6.14379 9.23352 818 0.458824 0.341176 0.294118 255 255 255 255 
-4.6191 9.2561 820 0.443137 0.352941 0.290196 255 255 255 255 
-3.07942 9.2561 820 0.4 0.32549 0.262745 255 255 255 255 
-1.53971 9.2561 820 0.4 0.32549 0.262745 255 255 255 255 
0 9.2561 820 0.380392 0.313726 0.254902 255 255 255 255 
1.53968 9.2561 820 0.360784 0.345098 0.239216 255 255 255 255 
3.08693 9.27867 822 0.352941 0.278431 0.227451 255 255 255 255 
4.63037 9.27867 822 0.345098 0.223529 0.239216 255 255 255 255 
6.18889 9.30125 824 0.345098 0.247059 0.25098 255 255 255 255 
7.73608 9.30125 824 0.34902 0.247059 0.231373 255 255 255 255 
9.30581 9.32382 826 0.356863 0.270588 0.215686 255 255 255 255 
10.8568 9.32382 826 0.364706 0.329412 0.219608 255 255 255 255 
12.4078 9.32382 826 0.380392 0.298039 0.227451 255 255 255 255 
13.9926 9.3464 828 0.4 0.313726 0.239216 255 255 255 255 
15.5848 9.36898 830 0.419608 0.305882 0.254902 255 255 255 255 
17.1846 9.39155 832 0.419608 0.305882 0.254902 255 255 255 255 
18.7469 9.39155 832 0.443137 0.305882 0.254902 255 255 255 255 
20.3579 9.41413 834 0.423529 0.305882 0.254902 255 255 255 255 
21.9239 9.41413 834 0.407843 0.301961 0.231373 255 255 255 255 
23.5462 9.4367 836 0.4 0.294118 0.211765 255 255 255 255 
25.176 9.45928 838 0.388235 0.282353 0.2 255 255 255 255 
26.8134 9.48186 840 0.380392 0.270588 0.192157 255 255 255 255 
28.4582 9.50443 842 0.368627 0.270588 0.14902 255 255 255 255 
30.0393 9.50443 842 0.239216 0.196078 0.109804 255 255 255 255 
31.6954 9.52701 844 0.113725 0.0352941 0.113725 255 255 255 255 
33.2801 9.52701 844 0.0941176 0.0470588 0.121569 255 255 255 255 
34.9476 9.54958 846 0.0941176 0.0470588 0.121569 255 255 255 255 
36.6656 9.58345 849 0.0745098 0.0666667 0.0980392 255 255 255 255 
38.2598 9.58345 849 0.0705882 0.0470588 0.0745098 255 255 255 255 
39.854 9.58345 849 0.0666667 0.0470588 0.0627451 255 255 255 255 
41.4481 9.58345 849 0.0666667 0.0509804 0.054902 255 255 255 255 
43.0423 9.58345 849 0.0666667 0.0470588 0.0431373 255 255 255 255 
44.7416 9.60602 851 0.0588235 0.0392157 0.0352941 255 255 255 255 
46.3395 9.60602 851 0.0509804 0.0392157 0.0666667 255 255 255 255 
48.0501 9.6286 853 0.0705882 0.0666667 0.101961 255 255 255 255 
-111.463 8.33425 886 0.513726 0.392157 0.25098 255 255 255 255 
-109.428 8.30603 883 0.509804 0.34902 0.294118 255 255 255 255 
-107.526 8.28722 881 0.517647 0.368627 0.341176 255 255 255 255 
-105.631 8.2684 879 0.529412 0.388235 0.345098 255 255 255 255 
-103.981 8.2684 879 0.529412 0.403922 0.34902 255 255 255 255 
-102.097 8.24959 877 0.533333 0.427451 0.345098 255 255 255 255 
-100.451 8.24959 877 0.498039 0.403922 0.341176 255 255 255 255 
-98.466 8.22137 874 0.462745 0.388235 0.333333 255 255 255 255 
-96.8249 8.22137 874 0.462745 0.388235 0.333333 255 255 255 255 
-95.1838 8.22137 874 0.454902 0.356863 0.329412 255 255 255 255 
-93.5427 8.22137 874 0.443137 0.333333 0.321569 255 255 255 255 
-91.9016 8.22137 874 0.443137 0.313726 0.317647 255 255 255 255 
